ply
format ascii 1.0
comment VCGLIB generated
element vertex 1759
property float x
property float y
property float z
element face 0
property list uchar int vertex_indices
end_header
-15.6992 -4.69564 3.07966
-10.7038 -3.97195 2.61629
-11.3082 -4.68864 3.07393
-14.2598 -3.78992 3.07456
-12.3226 -5.11936 3.07148
-10.733 -4.50478 3.08347
-15.1537 -3.55329 0.483099
-17.3816 -4.37361 1.36953
-12.5225 -5.85215 2.20243
-13.433 -4.63009 0.0122547
-11.6156 -2.51194 0.288069
-10.7114 -3.53481 2.80059
-10.7083 -5.52091 2.97457
-12.2979 -2.64478 0.0389481
-12.1594 -4.49094 0.0139141
-11.5926 -3.8487 0.735577
-15.4529 -4.73848 3.06318
-15.5113 -5.61369 0.523832
-14.4726 -4.74898 0.009758
-13.2644 -5.45644 3.06204
-16.1655 -5.30763 0.0281677
-14.2348 -5.81746 1.6693
-17.0041 -5.80682 2.54655
-13.5287 -2.45065 2.99313
-14.7656 -3.70336 0.748543
-10.7025 -4.58069 2.72194
-13.5124 -3.67411 -0.00843811
-12.9728 -5.61586 0.226742
-15.9757 -4.79163 0.551943
-12.0521 -2.56671 0.0208492
-17.2413 -5.12273 3.05545
-15.2521 -5.83084 3.58311
-13.8404 -5.49731 0.0209255
-10.6581 -4.79928 0.0594177
-10.7123 -5.15631 1.46796
-16.1968 -5.84192 1.46872
-14.2074 -5.59738 0.56167
-16.6527 -4.18682 3.06832
-12.4295 -5.86449 1.40828
-11.9933 -5.25645 0.0170631
-12.944 -5.86231 2.78612
-14.6122 -2.42637 0.391762
-13.827 -4.09255 0.564819
-12.22 -2.42693 0.782906
-13.1925 -3.42999 3.07346
-10.646 -3.854 0.0769997
-12.7821 -2.43632 1.25209
-13.2971 -2.43698 0.785265
-16.9294 -2.43612 1.48486
-11.9109 -5.66548 0.950077
-17.3849 -3.61703 0.569279
-13.658 -5.61124 0.560535
-12.0137 -5.85573 1.7867
-11.1155 -4.06843 3.07202
-15.4669 -2.43986 1.51752
-17.2693 -5.78619 2.87538
-12.8195 -5.59101 0.789471
-13.8359 -4.2412 0.690216
-15.5161 -5.42827 0.0334816
-12.1019 -2.44507 1.08169
-10.9208 -5.60975 2.23891
-13.1058 -2.43908 0.967873
-15.1559 -4.80764 3.06279
-10.9041 -5.63598 2.54717
-13.7926 -2.43574 0.658514
-12.9543 -2.43794 0.544945
-12.5633 -2.43496 1.37367
-14.6494 -2.85658 0.014452
-15.5095 -2.43857 0.727915
-16.545 -4.273 0.73
-16.9794 -4.42779 3.06452
-17.4117 -3.33156 2.99574
-12.5951 -4.63362 0.0129642
-14.4146 -3.54774 3.07668
-17.391 -3.64337 2.0563
-11.6097 -3.01847 1.06512
-15.5262 -5.8363 2.76267
-11.1357 -3.86376 1.24744
-16.8622 -2.43327 1.94555
-12.2078 -5.85993 2.68904
-17.2533 -5.66353 2.49932
-13.0064 -5.60913 0.614115
-13.3181 -5.83811 2.47495
-17.3928 -3.39447 2.1895
-16.6932 -4.07028 0.0196037
-15.9933 -5.83329 1.5325
-13.8119 -4.88903 0.00564384
-17.3868 -3.03975 1.54802
-10.8507 -5.02949 3.08345
-10.9968 -3.86904 1.3983
-12.2113 -3.33092 0.0177059
-11.1677 -3.85953 1.83373
-15.274 -4.72001 0.617998
-16.6476 -2.45234 0.305761
-12.27 -5.913 3.554
-11.0331 -4.93159 0.0203114
-14.5878 -5.15053 0.011837
-13.1321 -2.96299 3.06804
-11.854 -2.4263 2.75121
-11.9772 -5.86029 2.59549
-11.3417 -3.47353 3.08429
-16.541 -4.47 0.735001
-17.3751 -4.13866 1.20273
-16.4535 -2.44965 2.98461
-11.7591 -5.87409 2.79697
-13.5382 -3.58194 0.47826
-14.8053 -4.4104 0.731581
-10.732 -3.88387 0.644766
-14.4968 -2.43812 1.29599
-12.4205 -2.42892 2.65183
-13.8589 -5.80645 0.964203
-16.3596 -5.62508 0.837666
-10.7155 -5.37243 1.52272
-11.0843 -3.8679 0.690281
-15.503 -3.85571 3.07081
-14.2693 -4.85591 0.00876236
-14.149 -3.11464 0.566784
-16.8535 -3.45011 3.06721
-10.969 -4.32195 3.06717
-13.1319 -5.84219 1.79501
-14.4369 -5.88671 2.23281
-15.1377 -2.43488 2.13061
-16.5439 -5.61427 0.377836
-14.1624 -5.76448 1.00346
-14.1388 -5.07909 3.06649
-16.8683 -5.64456 0.888308
-17.1852 -4.03792 0.0492039
-17.3964 -4.33406 2.62472
-14.3754 -3.23386 0.00477028
-13.3571 -3.19403 0.0117245
-15.1819 -4.45297 0.731543
-12.9504 -3.71447 0.015255
-13.9431 -5.32247 3.07593
-11.9361 -5.85546 1.5305
-16.0251 -3.83437 0.736048
-12.5644 -5.28552 3.06898
-13.4636 -3.30436 3.07317
-15.556 -5.82731 3.60019
-14.2864 -4.23321 0.0104675
-12.0346 -2.42862 1.78517
-14.2146 -2.43589 0.585752
-16.2245 -2.44379 0.488901
-12.7888 -2.42668 0.272251
-12.5944 -4.78496 3.07602
-12.7731 -2.43224 1.83845
-13.1411 -5.83978 2.81407
-15.5815 -3.60395 0.708698
-17.389 -4.82627 2.18755
-10.7502 -3.88868 0.403723
-15.2315 -5.57348 0.0241566
-14.1789 -4.79786 3.06823
-15.6165 -5.61902 3.04107
-15.9019 -2.95217 3.06739
-17.3918 -2.7231 2.03896
-17.3977 -5.41912 1.27688
-13.1039 -5.65331 3.11311
-11.6084 -2.77272 1.59967
-17.1075 -4.60904 3.07067
-17.4009 -5.35064 1.07127
-11.3126 -3.19029 1.94824
-14.3929 -4.6246 3.06085
-14.5288 -2.86665 3.06783
-13.8727 -3.95273 3.07245
-11.7132 -3.68503 0.54425
-11.0671 -3.18171 2.92229
-14.2029 -2.79071 -0.00352287
-13.2509 -2.42798 2.23915
-15.8818 -5.87425 3.53732
-15.5868 -3.4943 3.07453
-14.4334 -2.4305 2.24347
-11.6201 -2.74374 0.345003
-10.7045 -3.40477 2.63915
-16.4501 -5.37615 0.0334797
-17.3899 -4.1877 3.02953
-11.5993 -2.70624 2.88173
-10.7156 -5.3718 1.95305
-16.6165 -2.43066 2.725
-10.6952 -4.26133 2.72075
-14.0565 -4.94685 0.0080452
-11.9459 -5.6112 0.628624
-14.0531 -3.82062 3.07302
-13.6349 -2.43678 0.408417
-13.6239 -2.44291 1.52973
-16.4075 -2.43611 2.76149
-17.3986 -3.98452 2.41689
-12.586 -2.42641 0.0387993
-13.412 -5.42908 0.00746727
-13.749 -2.85828 3.06547
-13.1568 -5.83936 2.03911
-16.7274 -5.82802 2.18154
-13.7824 -4.69581 0.712
-12.1284 -4.69908 0.0139046
-13.4982 -5.61319 0.669359
-15.7829 -5.70239 0.964998
-15.3434 -2.80689 0.00978851
-14.1294 -2.50777 3.05603
-11.3443 -3.84842 0.697012
-13.4829 -5.6256 0.87294
-15.8795 -4.06782 3.16241
-17.1701 -2.44775 1.52964
-11.4883 -5.02597 0.0236511
-10.6997 -3.49269 2.42032
-11.7241 -5.17764 3.07306
-11.6103 -3.86067 3.07392
-10.681 -4.73 1.626
-14.0285 -5.60434 0.812832
-15.7278 -5.85207 2.8999
-11.833 -2.45507 1.71803
-16.4656 -5.82621 2.08113
-15.324 -5.27481 0.0183372
-11.6117 -2.48566 2.46967
-10.665 -4.725 0.754999
-17.3699 -2.60938 2.94724
-14.2607 -2.42866 2.96809
-11.9932 -3.59589 0.0196133
-17.4077 -5.41667 1.95763
-15.1135 -4.14507 0.733109
-14.3771 -4.22353 0.730825
-13.6153 -4.77508 3.07602
-13.8255 -4.41555 0.0452557
-12.1745 -3.85934 0.361702
-11.849 -2.65601 0.789995
-16.1424 -2.43521 2.00317
-12.7914 -5.61041 0.557434
-17.392 -4.29148 2.16838
-17.3923 -2.93608 2.34151
-11.3776 -5.17222 0.113422
-11.9824 -2.83918 3.08895
-13.5672 -5.8183 2.88376
-13.1386 -3.12079 0.013382
-10.9114 -5.53375 3.05914
-14.1182 -3.57751 3.07208
-13.7226 -5.82984 1.48249
-14.6836 -4.79137 0.342325
-10.7063 -4.88332 2.06045
-13.1452 -4.99199 3.06939
-17.387 -5.25776 0.583336
-17.0452 -5.06928 3.06808
-17.2728 -2.41776 2.24563
-12.4559 -3.03895 3.07139
-16.268 -5.36097 3.05884
-12.5469 -4.17968 3.07704
-14.3249 -5.80974 1.14037
-15.51 -2.87878 3.0675
-13.441 -2.43578 1.97529
-17.3717 -4.25132 0.96866
-16.4811 -5.83089 1.53555
-12.8637 -5.84679 2.44092
-11.2484 -3.18921 1.67893
-14.6612 -4.35515 0.0199623
-12.6885 -5.84887 2.03806
-11.6956 -4.07981 3.07501
-15.6397 -2.42919 2.75471
-11.3383 -5.41164 3.06237
-10.6994 -4.87297 2.74282
-12.4918 -5.85111 1.60444
-15.3885 -5.45964 3.06128
-12.8424 -5.26117 3.06745
-14.2529 -2.43732 1.69604
-11.3693 -3.84831 1.26149
-12.1603 -5.85436 1.35358
-13.0534 -5.84274 1.55088
-15.8047 -2.43476 2.3253
-11.9063 -5.88807 2.41589
-14.8975 -2.43817 1.57254
-13.2385 -5.83877 1.38745
-16.7496 -2.43189 2.43934
-16.2229 -2.53028 3.08022
-15.7263 -5.56529 0.0452747
-15.7106 -2.43996 0.676943
-15.9442 -5.83526 1.9362
-14.861 -5.85428 2.4274
-11.7164 -4.92435 3.07391
-12.9399 -5.84032 1.93956
-17.3737 -3.6939 1.09368
-15.6764 -5.83854 2.15617
-14.0334 -5.57818 3.07429
-11.6877 -5.79375 1.55137
-11.3406 -5.60271 2.81959
-10.7461 -4.96941 0.0417442
-16.0053 -5.18466 3.05851
-12.7493 -5.6235 0.110207
-17.3754 -4.70026 0.941299
-14.1626 -2.42272 0.335619
-16.6114 -5.82489 2.81352
-16.3403 -3.37425 3.06988
-12.7086 -4.32837 3.07707
-15.0308 -5.58439 0.884949
-15.0626 -4.44101 3.06893
-12.2523 -3.68919 0.362616
-11.5902 -3.13118 2.22284
-11.5437 -4.59473 3.07418
-11.1702 -5.61949 2.02177
-17.3904 -5.31795 1.70525
-17.3892 -4.61122 0.759604
-15.5294 -4.88221 0.0196896
-15.5606 -5.84147 1.496
-14.8568 -3.27158 3.07314
-13.5766 -4.29424 0.727434
-14.1356 -3.11249 3.06947
-16.9259 -2.43931 1.01824
-12.3011 -5.52973 0.0320969
-14.658 -3.12099 0.0119991
-15.8935 -5.19107 0.0180092
-11.5981 -2.76362 1.17147
-12.9349 -2.43132 2.77305
-15.9276 -2.43626 1.97956
-12.342 -2.43186 1.50627
-15.5376 -2.43798 1.00646
-16.5077 -4.56915 0.0143433
-11.638 -3.776 1.564
-15.073 -5.84929 2.03275
-16.4318 -5.17857 3.06549
-16.0787 -3.92638 3.07922
-13.1376 -5.79964 0.991674
-13.1068 -2.44032 1.49942
-15.599 -5.1519 0.0171165
-12.0903 -5.85861 2.28552
-11.7191 -3.26286 0.789661
-14.5228 -4.94316 0.00746536
-13.7297 -5.61078 0.794922
-13.797 -3.70307 0.54501
-12.3118 -3.45792 3.08054
-11.1933 -3.17412 2.17063
-13.3605 -2.46662 0.00621223
-12.7885 -3.89681 0.0158138
-13.958 -3.73962 0.00951195
-16.7884 -4.90449 3.06739
-14.6563 -4.15422 0.732084
-14.3788 -2.43811 0.357502
-16.7126 -5.82177 0.968958
-13.9207 -2.90426 0.00989342
-14.7135 -4.65771 0.0166645
-15.0304 -2.43118 2.65885
-16.6002 -5.63386 3.04567
-16.153 -3.52201 0.0179996
-12.1272 -5.54126 3.07011
-13.9386 -3.49316 0.618929
-15.6056 -2.43141 2.98347
-16.0397 -4.53641 0.435968
-11.9851 -5.52534 -0.0182438
-17.2884 -2.4639 0.682987
-13.7781 -3.13176 0.00872803
-12.4409 -4.10741 0.0155144
-13.3866 -5.61044 0.282055
-17.3859 -4.90482 0.454784
-13.9135 -3.0425 3.06783
-12.7047 -3.66623 3.07561
-11.4822 -5.61805 0.759838
-14.4905 -2.44029 3.05208
-12.0778 -2.40552 2.84017
-11.7283 -5.56374 0.0454998
-11.61 -2.53934 1.26721
-13.3815 -2.93271 0.010479
-14.9332 -4.28482 0.733988
-16.455 -3.657 0.707001
-10.7055 -3.66579 2.60971
-16.1237 -5.828 2.62901
-15.8585 -5.61506 0.710957
-17.3872 -4.637 1.40092
-13.3036 -3.79684 0.0172806
-14.2803 -4.41234 3.06927
-12.0497 -2.42001 1.51771
-15.0418 -2.4381 0.701178
-11.5753 -5.30069 0.131884
-17.3699 -5.52955 1.51111
-10.7101 -4.78017 1.46416
-14.3049 -4.47889 0.721046
-12.4875 -2.43818 0.345009
-13.6286 -3.83781 3.07109
-17.4057 -4.70878 2.89303
-17.3906 -2.48035 1.1629
-15.0664 -2.43898 1.15222
-11.1776 -5.18881 0.675774
-17.3883 -3.68894 0.82357
-12.1661 -3.97958 3.12726
-14.7648 -5.54194 0.0211411
-17.3845 -5.05273 0.641073
-14.4829 -5.81883 0.957975
-11.2482 -5.61078 1.37415
-17.0154 -2.43801 2.92557
-12.051 -4.99344 0.0149765
-12.1621 -4.30814 3.11499
-15.166 -5.548 3.05327
-14.8984 -2.43369 2.44427
-12.5293 -3.6264 0.019165
-14.812 -4.50262 3.0654
-12.3242 -5.68996 3.04268
-14.9396 -3.92489 0.0190754
-15.9939 -2.43316 2.53113
-13.0624 -5.38978 -0.022047
-10.7128 -3.89998 2.23876
-11.5983 -5.63434 1.37312
-14.4841 -2.43778 1.80908
-15.3914 -3.6644 3.06945
-17.2293 -2.44459 1.26556
-12.0656 -3.34531 0.401825
-17.237 -5.79 3.498
-16.2246 -2.61823 0.0130196
-13.9991 -4.64388 0.517979
-11.625 -2.51062 0.070406
-11.6282 -5.63029 1.85297
-14.1737 -2.43717 0.944582
-11.4572 -3.16844 2.64536
-13.6425 -2.9203 0.00893784
-12.289 -2.45076 0.503004
-15.6487 -5.62451 0.654175
-17.3898 -2.78292 2.8135
-12.9386 -4.25426 3.07602
-17.0951 -5.81527 1.49532
-12.409 -5.85275 2.00924
-13.811 -5.82891 1.93852
-16.9038 -2.70284 3.05645
-12.2979 -5.62147 0.177671
-17.3859 -4.43091 2.92518
-14.5588 -2.43132 2.64696
-11.6976 -5.82627 2.3419
-16.1963 -4.87872 3.05932
-11.1617 -5.61216 1.15364
-14.414 -3.10091 3.07004
-17.383 -3.73599 1.60731
-17.0476 -5.81583 2.8151
-17.3877 -4.19916 1.77483
-14.6749 -5.89677 3.54056
-10.7843 -5.6057 1.51102
-17.376 -2.61532 2.62379
-15.1494 -5.82864 1.08343
-14.7071 -2.66969 0.010149
-12.6726 -5.08022 0.0139828
-11.5663 -5.58677 1.63569
-16.6506 -2.43392 1.90429
-11.6058 -5.44412 3.08107
-10.6778 -3.89348 3.00303
-16.3667 -5.0806 0.0160942
-10.7004 -5.1732 0.0771675
-11.6079 -2.9391 1.27975
-11.8271 -3.23469 0.0181999
-15.096 -5.11056 0.0103645
-13.9804 -3.12984 0.00886536
-13.1218 -4.95139 0.0115719
-10.8359 -3.71351 3.0639
-14.6589 -4.75031 3.06763
-10.7077 -5.55125 1.74414
-12.7046 -5.84899 1.65853
-13.704 -5.851 3.568
-17.3722 -3.9516 0.965216
-11.5813 -3.01352 2.83179
-14.0246 -5.61039 0.360832
-11.3959 -3.65108 0.0470886
-11.0098 -4.56195 3.06897
-12.2255 -2.42362 2.67861
-17.135 -2.7051 3.02515
-14.9193 -4.42966 0.0210648
-14.7174 -3.37126 3.06962
-16.4125 -3.57055 3.07023
-11.2927 -5.61591 2.2487
-10.7216 -5.45184 1.34092
-11.5696 -3.24318 0.96188
-13.3852 -2.43071 2.63057
-17.0788 -2.44682 0.796932
-14.4195 -5.18505 3.06626
-15.3267 -2.43028 0.0847778
-12.2029 -5.62552 0.730968
-17.3761 -4.87808 0.0529881
-14.2232 -5.81792 2.21499
-16.6303 -4.7178 3.06523
-15.3225 -2.43392 0.314278
-16.4673 -3.83177 3.0701
-13.3396 -3.57189 0.0140305
-15.7804 -3.1205 3.06927
-11.7094 -2.47989 3.02244
-13.4937 -3.72771 0.328751
-13.2756 -5.8387 1.63415
-11.0624 -3.8959 0.0501804
-14.1624 -5.82533 1.8308
-12.2437 -5.8211 0.925692
-15.9097 -5.85294 1.14551
-10.8416 -4.65567 3.06448
-11.5266 -3.17446 1.23276
-13.9001 -2.60926 3.07277
-10.811 -3.171 2.083
-16.7583 -5.81726 2.42598
-17.3885 -2.9483 1.85223
-11.6625 -4.09906 0.0180244
-14.9753 -3.34514 0.657824
-14.623 -2.43008 2.44126
-17.3885 -5.25056 0.818638
-14.1695 -5.29547 0.0168304
-14.7062 -4.11203 3.16157
-14.3226 -3.82902 0.735115
-15.098 -4.19622 0.0226974
-11.6031 -2.78592 2.20753
-17.3444 -2.55121 1.39641
-16.8048 -4.31284 0.0179844
-15.4471 -5.6038 0.112474
-13.282 -2.43984 1.06366
-16.0396 -2.44645 2.95784
-15.0537 -5.78574 0.954998
-14.4794 -5.58133 0.0083828
-15.5801 -2.43542 2.10126
-11.4946 -4.30625 0.0165806
-16.3784 -2.69301 3.06026
-10.9075 -3.17911 1.27545
-13.1097 -5.20749 3.06659
-16.9916 -2.44744 0.602581
-17.374 -3.87964 1.20899
-14.4484 -2.89293 0.00522995
-15.3973 -5.87546 1.04933
-11.5793 -3.18671 1.99924
-15.1811 -5.60988 0.596415
-14.631 -5.39942 -0.0196285
-17.387 -3.95755 1.69901
-14.048 -5.89 3.56499
-11.6388 -3.18832 2.95504
-15.1715 -4.88062 0.0093174
-14.3762 -4.76094 0.631588
-14.3699 -5.05804 0.758324
-11.1392 -5.6166 1.7314
-17.1747 -5.05204 0.0232296
-11.5975 -5.60756 1.11646
-10.7298 -4.90166 0.925049
-16.4731 -4.33771 3.06608
-15.7821 -3.95658 0.734999
-15.2516 -5.27771 3.06317
-16.925 -5.60689 0.689848
-13.0843 -5.84154 2.62312
-15.6363 -4.16027 0.732052
-14.9073 -5.85556 2.65537
-16.3803 -3.12611 3.06677
-12.813 -2.53059 0.0193024
-13.9614 -2.42465 2.52662
-14.1233 -3.01635 0.00894547
-14.2468 -2.43903 1.39595
-10.9425 -4.01825 0.0228882
-17.3868 -2.97511 1.05393
-12.3919 -2.44067 0.965235
-16.6755 -2.43898 1.02727
-11.9413 -5.86267 1.18488
-16.5608 -2.43795 1.2627
-12.4931 -3.2884 3.07092
-11.4646 -3.44367 0.0271568
-11.6203 -3.12166 2.60206
-11.6128 -2.55389 0.475672
-11.2198 -3.86986 0.218098
-13.9224 -3.70746 0.736912
-15.0099 -2.43802 1.39779
-13.1538 -5.60863 0.415081
-13.1368 -2.82787 -0.00343132
-12.4127 -4.39452 0.0140648
-14.0605 -2.43596 0.726757
-15.0211 -5.39089 3.06864
-12.1275 -5.85698 2.04209
-11.9055 -5.59518 0.224934
-11.2973 -3.16813 1.27865
-17.3701 -5.62387 0.816177
-17.3826 -4.17047 1.41032
-16.7953 -5.55517 3.05998
-12.3936 -2.42765 1.98943
-12.7361 -2.40709 2.90383
-12.7716 -5.90484 1.84202
-17.4003 -5.36544 0.371492
-15.8063 -3.48952 3.08416
-17.3901 -4.56184 2.10158
-12.1521 -2.5711 0.585516
-10.8908 -5.61339 1.94397
-11.1405 -3.18287 1.04348
-10.8178 -3.39772 0.592634
-17.3836 -3.26298 1.06728
-15.9521 -5.83531 2.22715
-13.4732 -3.55901 0.723684
-12.9952 -5.58541 0.0356045
-12.1746 -5.60894 0.519238
-12.0409 -2.42539 2.60806
-14.1024 -4.31286 0.744946
-17.3849 -3.86682 0.330538
-17.3889 -4.40121 0.68265
-13.1611 -5.84069 2.26341
-10.6982 -3.7853 2.41673
-15.6373 -4.26645 0.0139046
-12.7958 -5.84522 1.24686
-14.0045 -5.36302 0.0167389
-10.7923 -4.16873 3.08244
-15.3852 -4.55334 0.455345
-16.4281 -5.55045 3.05985
-11.2162 -4.34549 0.0154934
-12.7646 -4.42395 0.014204
-11.6366 -5.81183 3.45384
-13.9801 -2.4337 2.05136
-13.4334 -4.47128 3.14611
-11.7091 -5.92352 1.76535
-12.7631 -3.26242 3.07259
-10.83 -3.8598 0.0380363
-11.8387 -3.79798 3.07038
-13.8556 -2.44146 1.52031
-12.4683 -2.4272 2.23024
-13.6534 -2.44093 1.89563
-17.3885 -3.80106 1.85172
-10.7019 -5.26482 2.48401
-14.827 -5.6233 0.774876
-10.7138 -3.22663 3.03563
-16.3771 -4.72226 3.06224
-11.8119 -5.86059 2.99088
-10.9263 -5.27495 3.08348
-14.3001 -5.82163 2.03567
-17.3869 -3.03995 0.614763
-17.2733 -5.62531 1.98425
-14.2767 -2.88024 3.06632
-11.149 -4.11813 0.0207653
-13.4966 -3.42154 0.0121708
-16.9421 -5.39724 0.0108585
-10.8735 -5.62348 2.8511
-12.8444 -2.67593 3.05524
-16.13 -2.856 0.0200005
-16.179 -3.81033 0.0206356
-13.5675 -5.89135 1.05877
-12.0222 -3.86253 3.07552
-11.7291 -4.70457 0.0159969
-12.3565 -2.43347 0.129009
-15.1213 -3.10391 3.06942
-12.1342 -2.90242 3.06928
-16.4315 -3.8184 0.724901
-17.3931 -3.88047 2.0463
-13.1101 -4.8279 3.07169
-14.1157 -3.50638 0.0072403
-13.6938 -5.61246 0.112755
-10.7258 -4.08573 2.15689
-15.2954 -5.84546 2.69345
-11.3786 -3.84208 1.79579
-16.3106 -5.60894 0.306959
-12.0376 -5.62458 0.841164
-14.865 -3.42892 0.741238
-15.9688 -5.78316 0.887163
-15.8754 -4.92654 3.06068
-12.0392 -2.61693 3.07153
-14.2925 -2.45239 0.155226
-13.037 -2.42992 0.340996
-10.7022 -5.0364 2.56245
-14.6626 -2.43892 1.52147
-15.3657 -5.84453 2.3886
-10.646 -4.544 0.00699997
-13.4054 -2.42755 2.33736
-13.1917 -2.43493 1.94539
-12.3244 -3.08809 0.0207653
-13.7531 -2.43624 1.08859
-10.6998 -4.32731 2.95007
-17.3873 -4.14092 0.795607
-17.2086 -5.7298 2.27915
-11.8676 -4.88055 0.0149231
-14.0402 -5.8252 2.05334
-11.3107 -5.46606 0.481205
-11.5278 -5.60417 0.0764618
-14.921 -3.07162 3.0691
-12.4989 -5.5829 0.143902
-13.0513 -3.83554 3.08047
-13.4261 -5.83675 1.21248
-17.2043 -5.63245 0.407782
-11.5427 -5.60839 2.61456
-15.3566 -2.43586 1.93455
-11.1049 -5.14006 0.268423
-11.0747 -3.63078 3.06665
-17.4222 -3.59879 3.01816
-11.2229 -3.86086 0.886333
-10.7163 -3.88228 0.239365
-17.385 -2.863 0.205004
-17.1127 -5.60946 0.75931
-12.1281 -2.42207 0.0965881
-17.1737 -4.72924 0.0208149
-14.5961 -2.42917 2.86453
-10.7203 -5.59034 2.13896
-16.0715 -2.43221 2.76144
-13.0106 -2.43473 1.78582
-14.9695 -3.77308 0.727068
-11.3199 -5.19126 0.312452
-12.2368 -2.69337 3.0614
-15.9356 -2.44091 0.79743
-12.8715 -5.61139 0.379059
-11.7474 -2.94963 3.07142
-11.9007 -2.43958 2.96863
-14.6152 -4.99603 3.06696
-10.7094 -4.3502 2.32114
-11.3803 -3.19878 1.06543
-12.285 -3.96376 0.0108986
-12.215 -5.85643 1.58367
-10.7072 -4.80889 2.29636
-17.3921 -4.67076 2.34635
-17.3849 -3.12086 0.234482
-14.2801 -5.09358 0.00894547
-14.8486 -2.43812 1.05352
-17.134 -5.87133 1.05126
-14.3505 -2.43433 1.97032
-15.6307 -4.63023 0.451002
-17.0484 -2.42687 2.33072
-12.6912 -2.43675 0.544025
-16.9341 -4.01473 3.06659
-13.9392 -3.32337 0.00925827
-14.5514 -3.97768 3.09734
-12.6403 -2.42917 2.04602
-16.1089 -3.67682 3.06988
-13.9791 -5.82598 1.77901
-15.1013 -5.8493 1.45122
-17.3802 -4.03224 0.134405
-11.6113 -2.62018 2.32055
-16.7339 -5.49597 -0.017992
-15.5373 -3.48671 0.374851
-15.1492 -5.8228 2.99545
-15.5535 -2.64619 0.0032711
-12.5305 -3.02467 0.0187206
-15.5316 -5.25725 3.06202
-12.939 -3.40527 0.0151291
-15.7136 -3.29796 3.07214
-15.68 -4.79475 0.465879
-15.732 -5.814 3.628
-13.9658 -4.06712 0.75069
-13.95 -2.43521 0.482927
-13.8909 -5.60541 0.176594
-13.3981 -4.88323 3.07425
-16.8053 -2.43781 1.23572
-15.1504 -2.4391 0.931547
-12.5896 -2.74467 0.0255089
-12.232 -4.22764 0.0150204
-10.9785 -4.48384 0.0103607
-11.8951 -5.87162 2.20518
-16.6826 -5.82913 1.38836
-12.8042 -5.57475 3.07136
-13.1979 -2.43796 1.66934
-15.3629 -4.19123 3.07079
-17.3864 -4.0536 0.466093
-11.7322 -2.42745 0.826504
-14.4982 -4.54513 0.0153675
-16.6532 -4.00461 3.06985
-17.3557 -2.53036 1.64648
-13.5891 -2.43616 0.105841
-10.7071 -5.42087 0.777796
-14.968 -2.43808 0.927658
-11.3386 -3.16074 0.843332
-15.5361 -5.8392 3.03361
-17.3861 -4.53481 0.419018
-16.8858 -2.43212 2.18525
-13.6014 -5.83769 1.30954
-14.1132 -4.04395 3.07137
-17.3888 -4.83586 0.747169
-14.2456 -4.61414 0.0112
-17.3866 -3.25149 1.83405
-16.6852 -4.48532 0.0143566
-16.4902 -5.82536 0.962122
-10.707 -4.05239 2.37387
-11.9399 -4.99352 3.07502
-15.6191 -4.91356 3.06128
-16.9675 -5.81954 1.39201
-12.6525 -2.58065 3.05249
-16.9973 -5.82187 1.70164
-16.1202 -5.59282 0.231855
-14.5927 -2.43507 2.01573
-13.6507 -2.42956 2.46543
-17.3945 -2.7949 1.67717
-14.817 -5.65048 0.979757
-16.6965 -4.72326 0.016716
-12.0431 -3.36727 3.07229
-11.6129 -2.60218 2.05235
-10.7969 -3.19137 2.33765
-17.387 -5.14473 1.89981
-14.668 -4.32277 3.16913
-11.6416 -3.80406 0.993286
-15.0254 -3.09791 0.0099144
-15.1188 -2.7091 0.00690079
-11.7779 -2.42624 2.3047
-12.8384 -2.43654 1.44302
-14.6795 -5.62662 3.07725
-14.3874 -2.42695 2.75502
-11.886 -4.24355 3.07368
-13.3653 -2.51857 3.08819
-15.4365 -5.62225 0.931833
-11.6251 -3.20202 0.541901
-13.1429 -3.60008 0.0139866
-11.6264 -2.51869 0.887033
-12.9092 -3.1535 0.0150452
-13.3298 -2.8539 3.06662
-15.8863 -2.74236 3.06373
-11.972 -2.44804 0.894381
-15.0834 -3.42976 0.435858
-14.9365 -4.63259 0.680252
-14.2452 -5.68429 3.0615
-15.922 -5.45234 0.0102177
-12.9906 -2.44193 0.137388
-16.4603 -2.43279 2.53283
-15.1719 -3.82887 0.0254536
-15.7293 -5.61416 0.44529
-17.2118 -4.3897 3.04296
-11.6224 -3.6166 3.07212
-16.0487 -2.4419 0.392389
-11.9839 -3.59167 0.414982
-13.5865 -5.83307 2.05593
-17.3872 -4.85624 1.9293
-15.3684 -4.20584 0.727602
-17.3794 -2.5875 0.879
-13.4786 -4.65695 3.12112
-16.2159 -4.2557 0.0552139
-16.1036 -5.83452 3.32509
-15.8075 -4.51204 3.14871
-10.9468 -3.87105 1.98517
-16.337 -4.51288 3.06302
-15.4726 -4.7529 0.456486
-16.3702 -5.82796 2.71479
-11.37 -3.846 2.14201
-13.6722 -3.61082 3.07178
-12.5373 -2.45157 2.87081
-15.3416 -5.84519 2.14448
-12.5367 -4.99885 3.07343
-10.9507 -4.2507 0.0109062
-12.5333 -3.85202 0.0164852
-16.808 -5.82799 1.19729
-17.1726 -5.85392 2.08103
-13.2082 -3.69316 3.07916
-13.4775 -5.83519 1.53942
-10.7208 -5.12053 1.0233
-13.8722 -3.49131 3.0687
-17.2971 -5.40817 3.05243
-17.3855 -4.30898 1.59117
-11.099 -5.44937 3.07483
-13.4001 -5.0217 0.00962257
-14.4124 -3.80481 -0.00393486
-16.0389 -2.43404 2.23495
-11.7001 -5.84183 1.16097
-13.0995 -2.42802 2.40916
-16.239 -2.43299 2.41446
-17.3945 -4.21588 2.38517
-12.6123 -5.60867 0.388474
-11.1014 -3.36536 3.04451
-16.2646 -3.5834 3.06968
-10.9229 -5.13931 0.0868893
-13.68 -3.45899 0.736
-11.0462 -4.78742 3.07037
-11.5566 -3.94991 0.0693321
-13 -3.98206 0.0159225
-13.8484 -5.80878 2.93506
-11.1746 -5.24141 3.07673
-11.3763 -5.61942 1.82316
-10.6844 -5.19148 0.72934
-16.7529 -5.82471 1.67545
-11.6026 -2.48778 1.67584
-17.1064 -5.88552 3.32187
-16.5334 -5.82022 2.56953
-15.7243 -2.43906 1.60073
-13.3594 -5.83711 2.17479
-13.4587 -3.93541 0.27194
-17.2713 -5.60811 1.31053
-16.5862 -3.3342 3.06773
-11.6247 -2.70676 0.131115
-14.1383 -2.68916 3.08011
-11.4823 -5.58528 2.03895
-17.4045 -3.50664 2.50727
-12.6233 -5.46967 0.00714302
-14.1724 -5.31886 3.06486
-17.3923 -5.13477 2.4965
-17.3901 -5.24662 2.12514
-16.7673 -2.4442 0.528021
-17.3994 -4.12715 2.58293
-15.9838 -4.04546 0.735197
-10.709 -4.73856 0.222124
-12.5896 -5.26248 0.0227203
-11.2676 -3.85715 0.483124
-17.3779 -2.5085 2.38616
-10.799 -3.173 1.854
-13.5634 -2.43066 2.19605
-11.4869 -4.2253 3.074
-16.7996 -3.89511 3.06816
-11.2231 -3.79368 3.07207
-11.131 -3.858 2.136
-15.0569 -5.86127 2.84337
-15.7994 -5.83849 2.37655
-15.9196 -5.87749 2.55772
-15.1173 -5.84833 2.30342
-10.9699 -3.87551 0.877886
-11.6838 -5.89555 2.16051
-11.5199 -3.8336 1.69908
-14.6837 -5.86949 1.07958
-13.1561 -2.42457 3.02314
-13.7257 -5.76286 3.05276
-12.1743 -3.55328 0.0202465
-13.5088 -5.65906 3.10477
-14.0433 -3.85832 0.724844
-12.2459 -5.84776 2.90018
-15.1556 -2.65 3.09224
-12.8733 -2.43518 1.63033
-12.8254 -3.85765 3.07594
-15.8483 -2.43676 2.79805
-17.3925 -3.16636 2.25328
-15.0372 -3.85385 3.0699
-11.2812 -4.93731 0.0213089
-12.8989 -2.9747 3.06843
-13.0164 -2.42873 2.20157
-13.2354 -2.43828 0.502644
-15.5222 -4.00203 0.73287
-13.1912 -5.60919 0.175661
-12.027 -3.09072 0.479218
-17.1783 -2.40154 2.77904
-14.5032 -4.16419 3.09144
-12.3571 -4.24941 3.07854
-12.9525 -5.13297 0.0130978
-12.3899 -3.48153 0.0202923
-13.241 -3.98355 3.07458
-12.7381 -2.42825 2.24781
-12.1872 -5.14065 0.0149345
-11.4182 -5.56014 0.195526
-16.2254 -4.79366 0.0413761
-17.1618 -5.3486 0.0151157
-11.4024 -4.44035 3.07395
-13.4691 -3.87357 0.606379
-12.9149 -5.84666 2.16121
-15.6898 -2.96015 3.06723
-13.4005 -3.83612 3.1805
-17.3803 -3.94098 1.42246
-13.551 -5.83424 2.32971
-11.6195 -2.99202 2.13051
-17.3862 -4.09868 0.303516
-11.1567 -5.13763 0.0843105
-14.7097 -3.90234 3.16357
-16.1313 -3.44046 3.07312
-12.3667 -5.61651 0.366388
-14.4113 -2.43818 1.0098
-14.1418 -4.54447 3.06956
-15.3797 -4.46384 0.716509
-11.9988 -4.31233 0.015007
-10.8832 -5.62373 1.71821
-12.9025 -2.43072 2.06813
-13.3319 -5.09563 3.06973
-14.7011 -3.74111 0.0203114
-11.598 -5.69258 2.8016
-17.3978 -4.94158 2.6917
-17.3431 -4.59711 0.0143757
-14.8718 -2.43697 2.02369
-11.611 -4.52098 0.0159473
-15.1163 -4.15139 3.07139
-16.2462 -5.09969 3.06319
-15.3775 -3.06518 0.0681458
-17.0321 -2.8813 3.06357
-11.5857 -3.04388 0.84914
-11.417 -3.209 0.115999
-16.9327 -4.75003 0.019743
-17.3889 -2.74654 2.33897
-14.8523 -5.59306 0.273479
-15.9722 -2.5227 0.0261822
-12.2974 -5.85531 1.80145
-13.9597 -2.43644 1.3142
-11.4253 -3.17333 2.85306
-11.8752 -4.5041 0.0149364
-14.8666 -5.8531 1.54526
-12.8475 -4.94836 3.07168
-14.6654 -5.85988 1.77507
-13.7316 -5.83051 2.47223
-17.4162 -3.91235 2.96613
-12.6 -5.8392 3.06342
-17.0557 -5.62483 0.541269
-17.3912 -4.0719 1.95523
-17.3856 -3.50569 0.385077
-16.9739 -5.8187 2.25712
-14.3591 -3.97274 3.07018
-14.3307 -3.04652 0.0101604
-17.3855 -4.10086 1.58051
-15.9738 -4.90802 0.739799
-14.2765 -3.33255 3.07245
-11.9555 -2.69563 0.0336208
-17.3415 -4.58244 3.06514
-15.0402 -2.85721 3.07331
-15.2469 -5.84599 1.27055
-15.8024 -4.4984 0.495216
-12.455 -5.86749 2.97103
-16.2014 -5.81725 2.86111
-11.4021 -3.17525 2.19703
-17.344 -5.22981 2.92896
-11.7645 -5.35539 0.0124874
-12.9211 -2.43021 3.02023
-11.7413 -2.45977 1.47211
-13.8903 -3.25681 3.07047
-17.383 -3.31422 1.62012
-13.839 -3.31893 0.434826
-12.239 -3.21893 0.25424
-17.1189 -2.41104 2.04011
-14.5266 -5.83965 3.2641
-12.0806 -3.8053 0.0170422
-16.7026 -5.81087 3.02084
-17.3832 -2.80372 1.28629
-11.6372 -3.09881 0.330524
-11.1706 -4.50557 3.07285
-10.7201 -5.55199 2.42485
-10.9538 -3.87849 0.427458
-13.5662 -2.43422 2.74903
-10.8437 -5.58128 0.888077
-16.4645 -4.81797 0.0146427
-14.5303 -4.37765 0.722109
-13.0113 -5.42768 3.06914
-11.8334 -5.66334 3.08616
-17.3853 -5.11267 1.2436
-13.0951 -2.69401 3.04866
-11.2626 -3.17395 2.43221
-11.4525 -3.838 0.906836
-16.796 -2.94204 3.06418
-11.6361 -5.7553 1.70302
-11.055 -5.06011 3.0668
-14.461 -4.0146 0.731916
-17.3791 -4.65517 1.14657
-16.0871 -5.87845 1.06032
-10.7229 -3.32392 0.970039
-14.8878 -4.25483 3.07033
-10.7144 -4.3976 0.00706482
-11.9344 -4.79367 3.07481
-13.545 -4.42202 0.0225239
-10.6905 -4.9875 0.230568
-16.0801 -2.44137 0.636639
-14.1522 -3.90995 0.00776863
-13.6654 -5.83157 1.76347
-17.1676 -3.40437 3.0568
-11.3969 -4.09265 0.0220909
-16.5246 -3.86518 0.0221519
-12.2824 -4.91752 0.0140877
-17.4029 -5.41847 2.81425
-13.7598 -5.82566 2.733
-13.6433 -4.31066 3.07627
-14.7222 -4.06026 0.0192604
-13.8675 -3.71889 3.07334
-16.805 -3.65848 3.06822
-13.5125 -2.43578 0.655853
-10.7076 -3.41871 2.95619
-15.3793 -3.30807 0.212238
-14.8153 -2.43777 0.536892
-17.3837 -5.21939 1.47349
-15.1981 -5.60185 0.908449
-11.9783 -3.08648 3.06335
-16.014 -4.44118 3.08524
-11.2604 -3.17504 2.98936
-12.4585 -4.40396 3.07902
-15.3557 -5.67466 3.03151
-16.4876 -5.82832 1.81247
-11.6035 -3.37381 3.07811
-11.6897 -5.60985 0.654753
-11.2454 -5.58818 3.07096
-11.1057 -5.586 0.907549
-13.9931 -2.65435 0.0261688
-10.7026 -5.16252 2.76231
-13.6985 -3.14018 3.06973
-17.3941 -4.47122 2.40828
-10.9972 -3.18713 0.805849
-14.4198 -3.5275 0.00562859
-14.616 -5.85989 1.50168
-13.6469 -5.77074 0.972027
-12.0018 -5.87376 2.85598
-12.7203 -5.86683 1.03565
-16.4143 -2.44302 0.446611
-11.6114 -2.72772 1.82127
-15.4763 -2.42874 2.57319
-12.7119 -5.84814 2.30511
-10.9333 -3.8752 1.12734
-15.9763 -2.57915 3.06262
-16.3196 -2.4425 0.685493
-15.1708 -5.84782 1.8124
-11.8 -4.63172 3.07507
-11.5638 -5.50171 0.391275
-12.0569 -5.36167 3.07426
-17.0615 -4.92656 0.0259418
-11.637 -2.70924 0.583616
-16.1804 -4.03797 0.735901
-14.476 -4.631 0.459
-10.8886 -3.20961 3.08932
-13.5387 -5.83433 2.60629
-17.4024 -5.28839 2.33675
-14.0378 -2.43017 2.28398
-17.3841 -5.13104 1.02849
-13.0452 -2.43935 1.23189
-17.3868 -4.8475 1.26973
-11.5916 -2.8619 0.770157
-14.0366 -2.44414 0.121555
-11.3788 -5.61166 1.53278
-17.3894 -5.20812 2.67978
-12.6539 -4.04774 0.0150795
-14.5583 -5.89208 2.4293
-11.0971 -3.17884 1.45333
-16.8573 -3.2223 3.06542
-10.711 -4.60197 2.17669
-17.0321 -2.43156 1.75344
-10.7108 -4.98617 0.72349
-16.6433 -2.66031 3.05755
-12.6049 -2.43311 1.62207
-16.8544 -5.81078 2.81665
-13.6155 -5.50218 -0.0287876
-15.6936 -3.81697 0.0172577
-11.5127 -5.62202 2.38988
-10.7128 -4.97608 1.59389
-15.542 -5.84151 2.47662
-12.1915 -5.36373 0.01898
-15.7052 -5.12332 3.05957
-13.6623 -4.33024 0.430748
-16.5186 -2.4361 1.53311
-15.9157 -3.69337 3.16597
-16.3555 -4.08291 3.06926
-12.2457 -2.42581 2.41811
-16.1678 -2.43593 1.75787
-14.4639 -5.61155 3.08751
-17.3838 -4.89563 1.04294
-12.8091 -4.86317 0.0128784
-17.1013 -4.19553 3.06267
-13.6893 -2.43931 1.32444
-15.8997 -5.86584 2.77795
-14.1063 -4.38042 0.012476
-15.0474 -3.60239 0.0360928
-15.8301 -4.69251 0.522192
-16.249 -2.44319 2.90976
-17.2232 -4.83595 3.04972
-14.2897 -5.84896 3.33885
-17.388 -4.55362 1.57225
-14.2096 -2.51773 -0.0119171
-16.008 -3.63 0.737
-14.2989 -4.2023 3.07238
-10.7217 -3.88267 1.2
-12.376 -5.806 3.617
-12.551 -5.85155 2.45312
-17.3827 -4.48453 0.216799
-16.4963 -5.82342 2.33077
-13.3652 -5.85322 0.997904
-14.2403 -4.81328 0.472107
-17.3951 -3.8265 2.21587
-17.3704 -2.70432 1.0479
-16.6527 -5.12969 3.0661
-13.1465 -4.19094 3.07669
-14.1024 -5.82431 1.52741
-16.4521 -5.83475 1.22871
-11.626 -2.4478 1.11218
-16.0777 -5.00664 0.0197563
-15.5371 -4.32971 0.719046
-16.2179 -5.85117 1.23048
-16.8928 -5.1735 0.0188656
-13.2162 -2.44564 0.213799
-11.4071 -4.00577 3.07403
-13.0742 -5.59359 0.864849
-11.439 -3.73739 3.07267
-17.3835 -2.83999 0.810787
-15.8399 -4.30368 3.15412
-14.8212 -5.61039 0.524099
-11.4303 -3.86198 0.262951
-16.2094 -2.44035 0.908445
-12.8131 -5.34903 0.0270557
-16.0277 -5.77936 2.97882
-17.3929 -4.69526 2.59672
-10.6392 -4.64181 1.90599
-11.6266 -2.9179 2.66901
-15.2991 -3.95092 0.734072
-15.5714 -2.82078 0.0100994
-10.936 -5.13235 0.667921
-17.119 -2.51824 3.04996
-14.8351 -3.74742 3.06287
-13.2461 -5.24016 0.013237
-15.3113 -5.61512 0.502682
-17.2024 -5.82545 1.85765
-11.7794 -2.7785 0.765882
-13.8435 -5.12281 3.06698
-12.7416 -3.64692 0.0171013
-10.8987 -3.18295 0.947758
-11.4689 -4.76099 0.0147552
-16.6791 -5.82375 1.94266
-14.5089 -5.32642 0.702711
-12.4118 -5.60961 0.619324
-17.3881 -2.75288 1.50387
-12.4578 -2.77757 3.06108
-12.4186 -5.38623 0.0177402
-15.8205 -2.42425 3.03625
-14.5073 -4.18656 0.0121326
-13.7484 -2.42911 2.9197
-14.8088 -2.44688 0.263073
-13.1093 -2.43702 0.720982
-13.1438 -4.43596 3.07437
-11.6311 -3.7789 0.298933
-15.6924 -3.94711 3.07663
-17.3786 -4.42184 1.17829
-17.3877 -3.41785 0.752287
-15.1206 -2.44109 2.89976
-14.5643 -5.41218 3.06286
-17.1971 -5.82521 1.23279
-13.6478 -2.57372 3.0803
-15.7374 -2.42808 2.56794
-15.4246 -3.75456 0.0128803
-16.2101 -4.46633 0.759518
-12.8518 -2.437 1.04838
-15.1234 -3.6993 3.07234
-10.6844 -4.06224 2.87267
-12.3824 -5.85368 2.52483
-17.3881 -4.67765 0.534916
-14.823 -4.93287 0.025156
-11.2958 -5.52861 0.747934
-17.3979 -3.66286 2.32336
-11.8337 -5.89739 0.988113
-13.5281 -5.24962 0.0130062
-17.3582 -4.38913 0.0445004
-12.0497 -5.15218 3.07278
-16.2931 -3.80702 3.07141
-16.2653 -2.44192 0.0809155
-14.9347 -5.5192 0.0602932
-12.2359 -3.1728 3.07239
-12.2364 -3.51598 0.371811
-11.9729 -5.60795 0.430756
-14.6455 -5.58186 0.152555
-13.8894 -3.51987 0.00934792
-14.798 -5.81 3.62201
-15.94 -3.91509 0.0207729
-13.9925 -2.44425 2.88674
-14.8921 -2.79695 0.0175743
-14.081 -2.43738 1.52854
-10.8306 -3.86054 1.74237
-11.663 -5.81 3.63
-16.8646 -4.25219 3.0665
-10.7044 -5.45839 1.10956
-11.5939 -3.80531 2.13073
-13.3401 -5.87793 2.80656
-17.3115 -3.82865 0.0233269
-13.245 -5.903 3.575
-15.5606 -4.41136 3.06455
-14.0519 -5.82751 2.30651
-15.3819 -5.02878 3.0619
-11.0755 -5.42684 0.70739
-14.7174 -2.43995 1.77044
-17.2572 -2.41647 2.49694
-15.2861 -4.36708 3.06861
-14.0618 -3.35374 3.07102
-12.3282 -5.85416 2.26495
-15.237 -5.61333 0.253151
-17.4024 -2.93294 2.57758
-11.8068 -2.44266 1.0024
-14.0531 -2.4379 1.14906
-11.6511 -3.13033 0.106318
-16.3477 -2.43699 1.35315
-16.538 -2.534 0.0150051
-13.6601 -3.39106 3.07499
-15.3164 -2.43914 1.08908
-11.855 -3.72594 0.0262051
-14.5165 -3.34482 3.07493
-15.7372 -2.4387 0.921122
-14.6551 -4.59325 0.693552
-14.1337 -4.60155 0.687166
-13.1672 -2.43038 2.58471
-14.6793 -5.86185 2.62782
-11.6716 -4.93819 0.0194283
-12.5739 -5.62563 0.818207
-11.0155 -3.17317 2.26521
-12.895 -3.45856 3.07485
-14.4576 -5.83667 1.64668
-14.6496 -2.43791 1.08851
-13.49 -4.0709 3.08763
-12.1217 -2.82512 0.0187798
-13.525 -4.507 0.688
-14.2093 -2.4285 2.40508
-12.5724 -5.70478 3.10402
-13.7912 -4.38164 0.729862
-13.6087 -4.17284 8.39233e-05
-12.1349 -2.45395 0.262749
-14.9093 -2.58589 -0.0128689
-13.709 -3.36272 0.0117531
-16.8408 -5.28308 3.06872
-16.0766 -4.19318 3.0662
-10.7102 -4.78159 1.16404
-13.676 -3.62559 0.733473
-12.829 -2.42812 2.40956
-11.6926 -5.60092 0.237032
-15.3094 -4.57489 3.0639
-12.7466 -2.95487 0.0160446
-17.3487 -2.4481 2.0254
-12.6638 -2.43585 0.871267
-17.1731 -2.45964 0.494612
-10.7887 -3.2018 2.68453
-17.0153 -2.42338 2.56232
-17.2211 -5.61089 0.235014
-16.5573 -5.61512 0.632029
-16.13 -4.84501 0.635
-15.8526 -2.44242 0.528662
-14.509 -3.641 0.733999
-11.6158 -2.6032 1.04138
-15.3372 -3.50032 0.130589
-15.7562 -2.44013 1.86455
-15.3245 -5.8456 1.4847
-16.6595 -2.43277 2.13455
-14.4001 -4.90231 3.06557
-11.0829 -3.17382 1.85702
-15.175 -4.44123 0.0125694
-15.4843 -5.86725 1.2742
-11.6216 -2.48923 2.68934
-11.6065 -2.82841 0.959349
-13.0677 -5.84235 2.40662
-12.9036 -5.8435 3.05783
-15.4678 -2.43737 2.82258
-16.09 -5.818 3.617
-15.2529 -2.43906 1.348
-10.704 -4.71508 2.92527
-15.4476 -4.85269 0.699055
-16.1722 -5.71017 0.916748
-16.2323 -4.35213 3.06358
-14.4214 -4.58714 0.701403
-13.5472 -2.67156 0.0137959
-16.9272 -2.4405 0.350866
-17.374 -2.6992 0.427605
-12.4608 -5.49624 3.06385
-16.8297 -4.92488 0.0169792
-17.3858 -5.02705 1.69348
-12.0353 -2.42585 2.20424
-17.2812 -2.83047 3.02201
-17.3816 -4.29731 0.416901
-15.0962 -5.34323 0.0319157
-13.0537 -4.68107 0.0130234
-17.1797 -5.85123 2.68047
-13.1222 -3.82541 0.0161324
-14.9929 -3.5842 0.657841
-10.7387 -4.09361 0.00782585
-15.3873 -3.45397 3.07401
-14.6868 -5.85509 2.23045
-16.9254 -5.81462 1.96301
-16.547 -3.944 0.722
-11.598 -3.799 1.91
-13.4143 -2.44274 1.4541
-10.7109 -5.08333 1.8597
-17.384 -3.363 0.182001
-15.7331 -5.37299 -0.0257111
-10.9334 -3.87356 0.239866
-11.6727 -4.3773 3.0751
-17.0685 -3.08868 3.06874
-17.3882 -3.13906 0.833838
-11.6217 -2.98774 0.588665
-10.7105 -4.85926 1.80945
-16.6368 -4.99521 0.0170059
-17.3451 -2.40565 2.96285
-14.5323 -3.76944 3.12046
-11.0954 -5.59777 2.90094
-13.0233 -3.21531 3.07176
-17.3966 -3.08877 2.42605
-14.8506 -2.97775 0.0148182
-15.9287 -5.87015 3.19031
-16.6172 -3.56758 3.06896
-17.4017 -3.81056 2.52687
-10.7024 -3.6342 3.00234
-14.2605 -5.60972 0.203556
-14.6011 -4.53118 3.12942
-14.6603 -3.5899 3.17342
-15.6378 -5.58362 0.868267
-13.087 -5.842 3.567
-13.8984 -5.61091 0.574816
-11.3419 -5.2163 0.51722
-11.5861 -5.79155 3.22403
-16.1926 -2.43883 1.20715
-17.2602 -3.70928 3.02547
-14.7555 -5.81144 3.05461
-11.6241 -3.36004 0.0282269
-10.7011 -4.82053 2.52279
-13.9197 -2.43597 0.911476
-17.3877 -4.72093 1.72508
-10.7069 -4.97767 2.95853
-14.1804 -3.27159 0.00777054
-10.7113 -4.78386 0.594879
-12.1489 -5.8554 1.12982
-13.8866 -4.00845 0.00718117
-11.8004 -2.622 0.022337
-17.2956 -2.41669 1.83846
-16.7477 -5.62501 0.713335
-15.9774 -2.44009 1.07625
-11.5468 -5.27466 0.392653
-14.9186 -3.51517 3.07255
-16.0029 -4.70896 0.0163879
-17.39 -4.88575 2.44186
-17.2806 -5.60869 1.08285
-15.0582 -5.61253 0.434015
-14.4801 -2.43868 1.58356
-16.291 -3.66099 0.0209999
-17.39 -5.05585 2.2796
-15.5741 -3.10368 3.0694
-11.633 -3.772 1.326
-15.0542 -5.11217 3.06511
-17.0903 -4.43197 0.0253124
-14.8666 -4.94169 3.0642
-17.3952 -4.49563 2.70627
-11.5688 -3.83754 1.19032
-11.1063 -5.61693 2.38346
-16.692 -5.868 3.559
-14.5357 -5.85121 1.24801
-16.5221 -2.89631 3.06477
-12.8272 -4.63021 0.0130463
-11.6181 -2.71291 1.42708
-17.3823 -3.29509 1.37345
-15.6746 -3.70568 3.07587
-12.8884 -4.46371 3.075
-17.3988 -5.27801 0.102924
-10.7104 -3.24541 2.5034
-17.371 -5.49717 0.141853
-11.7482 -5.609 0.454643
-16.0472 -2.67964 0.00797272
-12.1563 -2.749 0.432411
-11.0191 -5.60896 1.5444
-15.7934 -5.83837 1.50772
-16.2218 -5.82936 2.20827
-11.802 -3.3918 0.572567
-16.9337 -5.84606 1.01174
-11.0468 -3.87024 0.501825
-11.6868 -2.43522 2.88144
-10.8579 -4.71921 0.0169353
-11.485 -4.82299 3.07402
-16.7163 -2.4365 1.4303
-11.9242 -4.4406 3.07795
-16.3821 -4.05787 0.0157852
-16.7843 -2.44168 0.779799
-11.3609 -5.60702 0.965271
-15.4126 -4.45162 0.0137558
-15.7381 -4.37156 0.726589
-11.3192 -5.61649 2.52713
-16.2328 -2.43399 2.64688
-11.4536 -3.18751 1.4809
-11.2519 -3.95527 -0.00175095
-11.619 -3.02305 1.47953
-13.6821 -5.06951 0.00759125
-13.5163 -5.45547 3.06472
-14.9076 -5.86143 1.09852
-14.8502 -2.43895 1.22801
-15.3812 -3.08745 3.07015
-11.9601 -4.66168 0.014843
-13.2167 -4.02593 0.0161934
-10.7038 -5.36401 2.23199
-13.8804 -5.82828 1.61656
-11.9909 -2.4224 2.4094
-11.0045 -3.87077 1.66319
-11.8217 -5.619 0.807381
-14.5704 -5.87679 2.92923
-11.4141 -3.21718 3.04236
-16.1834 -3.23932 3.07011
-12.9896 -4.03133 3.0766
-11.6101 -2.82209 2.01524
-11.8194 -5.41912 3.08848
-11.6163 -5.61313 2.21381
-13.463 -5.849 3.568
-17.0978 -5.278 3.11835
-12.2406 -2.97589 0.336098
-14.402 -5.83579 1.84398
-13.5548 -3.15803 0.0108948
-13.6944 -4.94866 3.07207
-17.3172 -5.59612 0.581114
-16.2651 -3.81973 0.73155
-12.5763 -2.43608 1.12158
-15.2091 -2.43109 2.42817
-12.9676 -2.95694 0.0138779
-12.7313 -5.84812 2.63665
-10.9046 -3.17601 1.61389
-15.4378 -2.43146 2.33393
-17.1446 -5.86478 2.96648
-16.7611 -2.43488 1.67985
-16.0677 -5.56288 0.0523033
-15.8236 -2.6648 0.000972748
-16.9833 -5.60878 0.0623283
-17.3906 -4.32383 1.9675
-14.444 -5.85065 2.65522
-15.5733 -3.58341 0.029583
-14.7244 -5.19131 3.06462
-16.1268 -2.43694 1.48013
-16.845 -2.42437 2.75403
-11.283 -3.34201 0.0389996
-17.2437 -5.79897 1.43239
-15.7296 -5.83844 1.30596
-11.734 -2.86861 0.0120373
-15.7314 -3.77548 0.735861
-13.261 -4.42296 0.015152
-13.6866 -3.85127 0.0346527
-12.684 -5.799 3.603
-15.3138 -3.63902 0.519997
-12.7054 -3.21163 0.0173759
-11.7045 -3.85791 0.0163345
-14.6323 -2.65411 3.06363
-10.6975 -3.28533 2.83825
-10.8591 -3.18419 2.89057
-13.8448 -4.26715 0.160545
-11.6861 -5.83881 2.55666
-10.7073 -5.04412 0.467979
-13.6979 -4.0928 0.352539
-14.5477 -5.85973 2.02437
-13.1143 -4.21449 0.0150166
-13.9877 -5.81912 2.74477
-10.7024 -4.42892 2.55908
-14.5076 -5.21547 0.297302
-15.0551 -3.33096 3.07186
-13.7988 -2.41846 2.63889
-12.4687 -3.2643 0.0196991
-11.6349 -5.78763 2.00673
-10.7014 -4.21154 2.4777
-13.2734 -3.14374 3.07015
-16.2564 -5.64533 3.05651
-17.3839 -5.02679 0.857239
-11.5203 -5.02904 3.07308
-13.4565 -2.436 0.92815
-17.387 -3.27554 0.607946
-11.9561 -4.054 3.07408
-14.9806 -2.43777 1.73936
-13.7941 -5.83057 1.20131
-10.7556 -5.61139 1.27057
-17.3895 -3.14988 2.02274
-13.4489 -3.58213 3.15596
-12.9934 -4.43512 0.0139599
-15.3882 -5.84391 1.70562
-14.6905 -2.43469 2.22982
-14.3122 -5.45476 3.06496
-11.7467 -4.32402 0.0149498
-13.6813 -2.4361 0.848907
-16.837 -2.485 0.0249996
-17.3896 -2.60686 0.609236
-13.1074 -5.84393 1.19717
-13.836 -4.45439 0.460123
-14.0997 -4.14663 -0.000255585
-17.3788 -3.51297 1.54342
-13.8889 -4.19521 3.07088
-14.5522 -2.43713 0.853436
-14.652 -5.62651 0.62775
-16.4534 -5.80755 2.9994
-12.302 -2.43045 1.73278
-15.2266 -2.49327 3.05308
-10.9046 -3.93069 3.0569
-14.537 -2.4473 0.169348
-16.4488 -2.44239 0.218771
-11.2805 -4.97548 3.0729
-13.2872 -4.75194 0.0113297
-12.2373 -4.8847 3.0766
-13.1045 -2.5645 0.0209179
-14.4555 -2.62594 0.0152302
-15.464 -5.61979 0.730101
-10.7133 -4.99547 1.26456
-12.4716 -2.44002 0.665525
-17.1732 -2.45741 1.05884
-16.484 -5.852 3.559
-15.855 -3.86107 3.12909
-13.9921 -4.22363 0.44537
-15.8366 -2.45397 0.107054
-17.1005 -5.65942 0.942247
-17.3101 -3.12138 3.04905
-13.7714 -5.28901 0.0142727
-10.8057 -5.53219 0.636528
-14.3063 -5.60391 0.887661
-14.0973 -4.30305 3.07003
-14.3614 -2.61584 3.08582
-17.3767 -3.48262 1.23807
-15.507 -2.43937 1.77613
-11.946 -5.87722 3.56252
-12.3216 -3.7191 0.0174961
-16.7218 -2.44005 2.92445
-17.3868 -3.0785 1.27971
-12.1734 -5.85651 2.46347
-17.3759 -3.69145 1.35989
-11.8656 -2.39341 1.25398
-11.8401 -5.87949 1.98846
-10.9877 -3.17725 2.52231
-13.9676 -4.67219 3.06943
-12.3461 -4.07332 3.08532
-15.2889 -5.84582 1.9371
-13.8636 -3.8926 0.540752
-12.3921 -5.60284 0.893362
-11.5381 -3.20433 2.41849
-16.8622 -5.06552 3.06712
-15.5695 -4.51525 0.695004
-16.2872 -5.56977 0.0300331
-14.7002 -2.48799 0.0138435
-17.3877 -5.01844 2.07705
-16.115 -2.77894 3.06557
-17.2755 -5.65452 3.07619
-10.7174 -5.42778 2.68249
-12.9434 -5.85158 1.09428
-14.0715 -5.62883 0.161781
-15.575 -2.44151 0.45438
-14.8531 -5.26791 0.0103588
-17.4038 -3.2398 2.50483
-11.4304 -5.21583 3.07179
-10.9431 -5.63827 0.781328
-11.6258 -2.95793 1.70264
-14.8144 -5.39772 3.06301
-12.8582 -4.17794 0.0148773
-12.6068 -3.47717 3.07316
-14.202 -4.06369 0.709476
-13.906 -4.48922 0.718016
-14.7689 -2.43079 2.65362
-17.3721 -5.12174 0.0411243
-15.2883 -3.92935 3.07216
-17.3862 -4.88826 1.48919
-12.1364 -5.60514 0.305933
-12.139 -2.42724 1.96819
-13.7747 -2.7318 0.0049572
-12.7079 -5.835 2.87131
-14.8884 -4.00912 3.06807
-16.9197 -5.81022 3.03802
-15.9837 -2.43579 1.84135
-12.0869 -4.61004 3.07864
-11.1694 -4.66403 0.0126801
-16.9149 -4.54977 0.018404
-14.7465 -2.43902 1.35353
-13.387 -5.83705 1.86758
-14.409 -5.834 3.568
-13.3488 -2.43602 2.91948
-14.9986 -5.854 1.29417
-16.223 -5.83193 1.93488
-17.374 -2.57847 2.18364
-12.0683 -3.11764 -0.00275993
-13.7859 -2.52458 0.0287533
-11.5034 -3.83783 0.504187
-15.8706 -5.83584 1.71805
-17.3838 -5.15009 0.394932
-11.6229 -2.99159 1.90083
-10.7216 -5.26116 3.02508
-14.9317 -5.66775 3.04344
-16.8602 -2.49528 3.05622
-12.0667 -5.78354 3.07067
-14.8722 -4.20194 0.0171757
-14.9216 -2.45066 0.0963478
-12.6414 -3.4306 0.0178223
-16.6109 -5.83179 1.09527
-13.8077 -4.77598 3.07287
-16.6245 -3.10426 3.06527
-15.8496 -2.45162 0.305542
-16.5074 -4.30138 0.0161495
-14.3344 -4.03755 0.0011158
-13.1467 -5.83198 2.98377
-17.4065 -3.16689 2.80764
-17.2846 -5.59933 2.72192
-13.9392 -2.44296 1.77901
-11.1366 -5.15383 0.475325
-10.713 -5.24663 1.70357
-14.3899 -2.42994 2.51998
-15.4798 -4.66307 0.0256042
-15.2855 -2.43568 0.552557
-17.3868 -5.4498 0.639872
-15.4385 -2.63334 3.05409
-15.937 -2.43662 1.64443
-15.7541 -4.04498 0.0268497
-16.2958 -5.83367 1.686
-11.8135 -3.49212 0.0200539
-13.3417 -5.78895 3.08401
-14.6183 -5.00811 0.542353
-13.3137 -2.68796 0.0063591
-16.2953 -2.90506 3.06609
-15.6917 -4.16892 3.0676
-10.9806 -3.17296 1.97501
-15.9658 -3.23563 3.07049
-11.6571 -2.404 2.17306
-15.8276 -4.47301 0.0291233
-14.1324 -2.43536 1.85751
-17.3949 -4.05318 2.19159
-11.8505 -2.85264 0.478987
-12.9697 -3.63882 3.07355
-10.709 -4.78314 0.400158
-14.1646 -3.62973 0.725706
-14.4616 -4.37594 3.0687
-13.2607 -5.83649 1.16038
-11.8499 -3.5118 3.0677
-13.1537 -2.43075 2.81898
-15.2695 -3.28314 3.07136
-11.7207 -5.77645 0.954239
-13.7109 -3.60789 0.0154152
-17.3964 -4.2131 2.80356
-16.3179 -4.2708 0.734957
-11.7928 -3.22379 3.10768
-17.3854 -3.53039 1.78697
-15.9814 -3.50399 3.07708
-15.2723 -4.70077 0.0121975
-14.5803 -5.61977 0.851772
-14.3298 -5.02757 0.569786
-13.8108 -4.65801 0.467905
-14.1982 -5.82201 2.64589
-16.8682 -4.65285 3.06822
-15.2679 -2.43259 2.70342
-15.6809 -2.43864 1.40147
-15.6518 -5.84473 1.10105
-13.3587 -4.25018 3.13944
-11.6468 -4.73953 3.07417
-14.4376 -2.4367 0.538317
-15.7286 -5.8375 1.91412
-12.3983 -2.54323 3.07352
-15.28 -5.78685 0.93561
-15.2998 -3.99708 0.0279331
-13.6533 -4.64093 0.0127869
-16.5178 -5.63274 0.0933895
-13.5209 -3.04323 3.06907
-14.3848 -4.39522 0.0132141
-16.1183 -3.03451 3.06719
-12.3125 -2.41473 2.89575
-14.0206 -2.86287 3.0664
-13.547 -4.85202 0.00668144
-13.514 -4.117 0.664001
-13.8257 -2.42999 2.2682
-13.4992 -2.43889 1.18149
-17.389 -5.06532 0.231937
-11.5674 -3.17097 1.7516
-17.0356 -2.43941 1.2635
-17.3745 -5.45841 0.893738
-12.6152 -4.24676 0.0141697
-12.0629 -4.0696 0.0161324
-10.754 -5.63676 2.68762
-15.956 -4.6895 3.06096
-15.7457 -2.4371 1.18534
-11.6174 -2.70913 2.57801
-16.2592 -4.61416 0.475719
-12.6589 -2.86563 3.06854
-11.2209 -3.18524 2.7183
-16.7917 -5.61845 0.481932
-12.9266 -4.67427 3.07439
-15.7148 -4.70687 0.0100403
-17.3915 -3.68352 0.166096
-14.7949 -5.85849 2.0109
-15.0886 -3.91651 0.727047
-17.0167 -3.96938 0.0249424
-10.661 -3.868 1.439
-14.2996 -5.87499 2.88982
-16.4041 -2.43468 1.97922
-13.3744 -4.21799 0.00167274
-16.5637 -2.44323 0.609247
-16.6094 -5.60647 0.87705
-12.2554 -2.42573 2.16496
-12.4984 -5.87466 0.978758
-14.9983 -2.46375 3.06802
-11.6621 -5.16002 0.0196514
-15.002 -4.67809 0.0199585
-16.2753 -2.43419 2.18966
-12.6705 -2.42544 2.59861
-16.9817 -4.17146 0.0218163
-17.4071 -5.56088 0.381727
-10.9266 -5.60785 1.10506
-13.6806 -5.30501 3.07033
-10.9991 -3.17436 2.73586
-14.7484 -2.48164 3.04676
-16.7205 -4.4525 3.06729
-14.2389 -5.46006 0.0232658
-12.2639 -2.4338 1.26451
-15.5008 -5.84208 1.93214
-16.325 -5.823 3.613
-14.9277 -5.85237 1.80601
-16.3712 -2.43496 1.73249
-11.4458 -3.84447 1.47714
-15.8527 -5.66335 3.05877
-17.4069 -5.43182 2.53687
-13.8171 -2.44676 0.247862
-17.0198 -3.70135 3.06396
-13.7148 -5.60996 0.344994
-17.3975 -3.33864 2.72267
-16.2612 -5.82699 2.4443
-11.1951 -3.17968 0.619307
-14.0876 -5.80545 2.95343
-11.2481 -4.25132 3.0739
-15.5061 -2.46572 0.00411606
-13.7022 -4.07919 3.07233
-17.2417 -4.20752 0.0385056
-14.5303 -5.60913 0.37509
-12.6545 -3.10034 3.07063
-12.5567 -5.85004 1.82294
-10.7237 -5.29628 0.969934
-10.7171 -5.25924 1.24852
-13.8129 -5.8295 2.23505
-14.3382 -5.81716 1.42636
-17.3808 -2.65427 1.85418
-15.1068 -2.9266 0.0173798
-16.4247 -2.43971 1.07866
-10.8528 -3.45381 3.06577
-12.5707 -3.91466 3.07726
-15.5418 -5.79374 0.936527
-16.5033 -4.94297 3.06383
-14.1844 -2.42803 2.68496
-11.6463 -5.69697 2.98876
-11.475 -5.58864 0.575274
