ply
format ascii 1.0
comment VCGLIB generated
element vertex 1772
property float x
property float y
property float z
element face 0
property list uchar int vertex_indices
end_header
-11.5674 -3.30591 0.0247192
-14.0272 -3.33081 0.00905418
-14.1986 -4.13083 0.731001
-12.7657 -5.89478 2.77772
-11.2746 -3.17532 1.74518
-11.4437 -4.55534 3.07397
-12.8487 -5.85827 1.29742
-17.387 -2.74788 1.93246
-17.391 -4.26886 2.01414
-13.731 -3.95768 3.07279
-16.4027 -3.0508 3.06596
-10.7038 -3.52243 2.67249
-14.6068 -2.58138 3.06287
-11.0217 -3.18125 0.978218
-12.6458 -2.42919 2.45128
-17.3981 -4.21977 2.72853
-17.3849 -2.82252 0.837423
-10.7089 -4.63186 2.28913
-13.18 -4.69726 0.0129395
-11.5923 -5.75644 3.16253
-14.2697 -2.43786 1.64853
-11.3466 -5.61589 2.61478
-15.466 -5.62446 0.906216
-12.6126 -5.27606 3.06832
-11.3128 -5.14781 3.07199
-12.4048 -5.08405 3.07205
-14.742 -2.9581 3.06719
-13.0065 -5.61237 0.878082
-13.3567 -2.49623 3.06117
-10.9753 -3.87157 1.44559
-12.0854 -2.42495 2.58554
-13.3476 -2.43656 2.9704
-14.5005 -5.87299 1.85015
-16.4072 -4.80578 3.06215
-15.7253 -5.16728 3.06022
-13.8995 -2.44077 0.135403
-13.7764 -5.82996 1.35994
-13.9515 -3.02734 0.00896835
-16.1083 -5.61501 0.477304
-13.5379 -4.44849 3.07797
-15.0513 -3.3723 3.07281
-13.2622 -2.86245 0.013298
-13.9991 -2.95935 0.00920486
-11.4961 -3.49475 3.07201
-14.3742 -2.44274 0.196779
-16.9605 -2.86897 3.064
-14.3755 -5.88711 1.6506
-17.403 -3.89064 2.77346
-10.7537 -3.99076 0.00722313
-15.5193 -2.43803 1.30495
-13.8152 -4.06366 3.07206
-17.244 -5.67513 2.51548
-10.786 -3.171 1.977
-17.298 -3.73 0.0249996
-11.8493 -5.55501 3.09675
-13.4435 -5.83602 2.26254
-15.2794 -5.84582 2.97782
-14.6864 -2.43828 0.310614
-16.242 -5.35676 3.06113
-12.2971 -3.97939 3.11222
-17.3838 -4.37452 1.52701
-12.0608 -5.46813 3.07907
-15.7624 -3.30328 3.0723
-15.089 -3.7458 0.732597
-14.4146 -2.43698 1.85067
-12.8082 -5.62389 0.927599
-11.5713 -3.84199 0.416637
-12.5183 -3.01064 0.0188084
-14.1784 -3.40838 3.07175
-10.7551 -3.87051 1.62738
-15.7514 -2.62237 -0.00675583
-12.2118 -2.43115 1.61828
-14.6508 -2.43793 1.03872
-15.4046 -2.55 0.00400352
-15.842 -2.43995 0.835264
-17.394 -4.52711 2.53159
-15.0228 -5.85019 2.00164
-12.1131 -2.42405 0.423815
-15.2331 -5.847 1.31912
-10.701 -4.7766 2.76119
-14.6351 -2.42995 2.50867
-15.2937 -2.43897 1.16159
-17.4028 -3.71872 2.55751
-11.3888 -5.1515 0.0263176
-12.0996 -3.67983 0.0191288
-15.2319 -2.44226 3.01124
-14.9726 -5.61006 0.2055
-16.2219 -2.43686 1.5091
-15.2693 -2.43998 1.44315
-12.9215 -5.58838 3.05657
-11.7738 -4.00077 0.0170059
-16.4985 -5.82297 2.28577
-16.8405 -3.42783 3.06725
-14.196 -3.04 0.534
-10.767 -5.60739 1.80486
-10.7234 -5.13808 0.952761
-11.018 -4.62683 3.07296
-14.1441 -3.11599 3.0691
-14.9889 -3.42699 0.607773
-17.3074 -5.39149 0.0280933
-10.7129 -5.43412 1.36494
-15.6162 -4.04297 0.733053
-16.1218 -5.83047 2.16778
-12.2653 -5.85506 2.50928
-10.7106 -5.17706 0.657759
-13.1268 -3.59266 0.013958
-11.5001 -3.84626 0.45063
-13.0878 -5.60802 0.232912
-10.7062 -5.41312 1.72737
-10.7018 -3.99965 3.04778
-11.6567 -2.56923 3.0606
-11.14 -5.22324 3.07121
-14.9334 -4.76355 3.06309
-11.6485 -3.32904 0.0189743
-16.1335 -4.95049 3.06285
-13.6774 -3.41875 3.07335
-10.8791 -5.618 2.46445
-12.5135 -2.43312 2.94158
-15.5449 -2.75751 3.06577
-14.9356 -3.76723 0.731146
-12.3193 -3.37143 3.07485
-15.8159 -4.68076 0.622244
-17.0866 -5.64104 3.07401
-13.3341 -5.60911 0.455984
-14.8896 -3.26197 0.688736
-17.3851 -5.28981 1.33257
-10.7039 -4.02491 2.80777
-17.0637 -4.82668 3.06456
-17.3824 -2.45489 1.96584
-17.3907 -4.89196 2.51276
-11.9519 -5.86055 1.16591
-13.9094 -5.61182 0.750746
-13.8946 -2.43763 1.97917
-17.388 -4.67142 1.55877
-16.9386 -5.61802 0.723938
-11.3519 -5.60994 0.994904
-11.608 -2.92229 1.78083
-13.6404 -5.83508 1.0663
-16.4457 -3.29644 3.06894
-14.9897 -4.27925 0.731985
-14.8354 -5.01678 0.0131741
-17.3941 -4.85266 2.86787
-10.7193 -3.84491 2.03552
-11.211 -3.85842 1.31143
-14.4279 -2.70854 0.0089035
-14.1997 -2.79425 3.06471
-11.6152 -2.92019 0.873432
-17.39 -4.81796 2.27027
-16.1717 -4.46757 3.06284
-10.809 -3.18 1.265
-15.5669 -5.40357 3.06195
-14.3109 -4.77622 0.624516
-17.3834 -4.67572 1.21598
-10.7277 -3.17793 2.9572
-17.3818 -5.55716 0.570307
-15.4587 -2.80196 0.00879097
-17.3849 -3.43988 0.307196
-12.8219 -2.84884 0.0149746
-13.1307 -5.84111 1.91455
-10.7173 -4.86989 0.396973
-17.386 -4.76155 0.423794
-17.3827 -3.89557 0.478224
-12.3173 -4.04704 3.08659
-14.404 -2.84501 3.06645
-10.702 -5.32182 2.34506
-11.6142 -3.05548 0.870689
-13.0812 -4.91552 0.0131264
-13.464 -3.49801 3.07725
-16.9512 -2.44654 0.160265
-15.6234 -2.44029 1.83079
-15.3872 -2.46789 0.011446
-15.76 -5.83818 2.7306
-10.686 -4.725 1.40399
-15.2444 -3.5722 0.015213
-10.7028 -3.59767 2.49558
-13.7553 -2.43864 1.99213
-14.9982 -2.6012 3.06404
-14.1364 -4.4386 0.0116749
-12.3158 -2.42614 2.2512
-14.2847 -5.60847 0.120066
-17.3811 -5.36465 0.757038
-16.5179 -4.28615 0.0162392
-12.3615 -2.70806 3.06679
-11.9137 -3.80853 0.0180531
-11.804 -3.234 0.568001
-17.3776 -3.53721 0.953835
-12.5847 -2.436 0.658388
-15.0232 -3.43887 3.07301
-17.2496 -2.4327 2.03299
-10.7714 -5.17251 0.41144
-11.6188 -2.51355 1.04181
-14.9348 -3.06646 0.0172501
-12.8785 -5.61018 0.062151
-14.9054 -2.43905 1.38639
-12.0108 -5.76981 0.959808
-17.2043 -5.36258 3.05747
-13.5661 -4.10114 3.07721
-15.5658 -5.84125 2.29789
-10.7799 -3.88275 0.981352
-13.4733 -3.62957 0.0155754
-17.2838 -5.62263 1.74608
-15.7282 -5.61496 0.671778
-13.7039 -2.42999 2.49642
-11.8746 -2.42509 2.57231
-13.4838 -2.43705 0.406874
-12.1361 -5.06283 0.0150051
-13.8475 -3.32525 0.0089817
-12.9695 -4.47916 3.07499
-12.1082 -5.85791 1.53742
-17.3901 -4.56897 2.16446
-16.9581 -4.61297 3.06615
-13.5991 -5.82623 0.999571
-12.7419 -2.43607 1.47115
-11.4593 -3.84708 0.813679
-11.7903 -3.21871 0.0217209
-17.3882 -5.34008 1.93064
-14.0354 -5.82595 1.82347
-14.4111 -4.47454 0.0145378
-15.0437 -2.43903 1.07572
-13.5029 -2.8769 3.06693
-13.1027 -5.84196 1.18859
-11.8379 -2.44581 0.822115
-15.8395 -2.4442 0.395363
-17.173 -4.31715 0.0208931
-11.7622 -4.77176 0.0150948
-14.257 -2.43194 2.72382
-12.1135 -5.85794 2.79368
-14.2473 -2.4408 0.252308
-16.0044 -5.8758 2.48016
-16.4286 -5.82526 2.23396
-17.0903 -4.3195 3.06279
-13.5477 -4.32029 3.07624
-16.3614 -2.43298 2.42215
-12.8461 -4.36441 3.07623
-15.0666 -2.43787 1.53168
-17.3854 -5.5651 2.69003
-17.2465 -5.7243 2.65319
-11.5355 -4.41135 3.07406
-11.1318 -3.17614 1.50191
-17.3697 -4.50959 0.0252628
-16.9299 -4.47246 0.0189419
-11.5662 -5.61053 1.71885
-14.0694 -2.44273 3.03519
-13.3863 -5.30766 0.0120468
-17.3861 -2.85712 0.774595
-11.6999 -5.92071 1.93602
-10.7184 -3.86028 0.330103
-10.9817 -3.18572 3.06775
-13.3039 -5.83807 2.88591
-12.2127 -5.8554 2.35464
-16.131 -3.64999 0.736
-13.9126 -2.4396 1.52821
-12.2096 -4.80911 0.0139999
-12.3155 -2.98643 0.0208378
-11.296 -3.179 0.918081
-15.2597 -2.44257 0.218269
-17.3909 -5.45339 2.50024
-16.4768 -5.82661 2.0244
-13.7604 -5.83065 1.52849
-11.9649 -3.56542 0.0208035
-17.39 -4.91221 2.42602
-14.9648 -3.37758 3.07277
-17.3915 -5.00048 2.38716
-11.673 -5.85516 1.69468
-14.0885 -5.82693 1.96468
-11.981 -2.43794 3.05802
-15.8855 -4.84888 3.06213
-16.6785 -5.35588 3.06697
-15.7436 -5.61131 0.231918
-11.0335 -4.35231 0.011343
-14.1154 -4.49548 0.0119038
-12.3063 -5.85501 2.04534
-15.6535 -2.43803 1.08692
-17.3972 -4.08716 2.38971
-15.2768 -3.1178 0.0159779
-17.3819 -2.54591 1.25915
-12.4176 -5.85312 2.58839
-11.0672 -3.86657 1.69015
-17.3879 -5.28684 1.87024
-14.7965 -5.85422 1.55755
-13.8259 -5.87782 1.01915
-17.3878 -2.52436 2.37304
-12.584 -4.66629 0.0129642
-12.134 -5.857 3.018
-14.226 -4.94 0.704
-12.2764 -2.43284 1.32663
-14.9277 -5.79332 0.947206
-12.6983 -3.84751 3.07612
-16.9596 -2.43102 2.60408
-15.32 -3.84512 3.07199
-17.0263 -3.20224 3.06296
-12.763 -5.29588 0.0139866
-17.3849 -5.23121 1.17922
-16.7977 -2.43104 2.72049
-13.0196 -4.97055 3.06994
-12.6626 -5.60898 0.474375
-11.162 -4.80351 3.07305
-15.3234 -2.44213 0.323961
-11.7382 -5.86825 2.30324
-12.0496 -5.85895 2.92194
-12.9084 -5.84502 2.11642
-15.015 -2.43719 1.74424
-15.9878 -2.43297 2.48018
-15.8973 -4.98243 3.061
-10.652 -4.726 0.68
-17.4039 -3.7727 2.88821
-13.4892 -2.75651 3.06489
-15.043 -5.59505 0.0192318
-14.0533 -4.17025 0.0114975
-12.4157 -3.30202 0.0201035
-12.9059 -2.99352 3.06868
-12.7747 -5.89404 2.3335
-11.4205 -5.5555 0.268112
-16.0324 -2.44493 0.432726
-11.6178 -2.67187 0.788143
-14.1931 -2.43312 1.99442
-16.8325 -5.8222 1.85162
-10.7046 -4.27854 2.37418
-13.5451 -2.44187 1.4159
-17.2937 -4.53419 3.0585
-15.153 -3.94929 3.07301
-17.385 -5.02954 1.14774
-13.2387 -5.83906 2.34914
-11.6163 -2.99897 0.732487
-12.0199 -2.42826 1.87852
-15.2469 -5.84634 1.67152
-15.0751 -3.41803 0.0178261
-16.5351 -4.50384 3.06498
-10.9543 -5.6098 0.818689
-13.3537 -3.84534 0.0179672
-17.4043 -3.4411 2.84742
-12.4505 -2.43488 1.33402
-13.7011 -5.8308 2.74005
-11.1478 -3.86204 1.34079
-13.7592 -4.45833 0.446775
-12.0295 -3.63837 0.470654
-17.2284 -5.77526 1.29946
-15.97 -4.47399 0.464001
-17.3913 -2.68537 2.89792
-15.154 -4.871 0.00300026
-16.5671 -2.43195 2.72835
-14.1125 -4.03632 0.731001
-15.3926 -5.84418 2.82113
-13.6851 -2.85804 0.0090847
-15.0002 -5.61106 0.298542
-10.995 -4.27489 0.0108337
-11.1412 -5.61004 1.02287
-13.3522 -2.44104 1.19758
-10.9337 -4.85509 3.07205
-14.719 -2.43948 3.02063
-14.108 -4.36183 0.72999
-15.1432 -2.89237 3.06684
-11.4886 -3.24395 3.06804
-14.43 -5.177 0.679996
-14.3465 -5.6072 0.0688477
-16.2619 -2.43395 2.32435
-13.3123 -4.42179 0.0150127
-11.9538 -5.60651 0.849926
-17.3932 -4.5764 2.40503
-13.109 -2.43988 1.29143
-14.232 -2.43204 2.12288
-11.8236 -2.43542 0.959942
-14.448 -2.43609 1.90702
-10.9924 -4.04589 0.012331
-16.3693 -3.78152 0.726742
-15.7357 -5.61408 0.516439
-15.0585 -2.43782 0.535482
-14.2585 -2.44044 3.01914
-13.6533 -2.78216 0.0110321
-14.35 -4.5398 0.0120163
-12.0451 -2.4342 1.07307
-12.36 -2.762 0.455
-12.1084 -2.9409 3.06978
-13.4032 -2.436 0.655045
-15.1401 -2.43682 1.67868
-12.0563 -4.47605 0.0138683
-12.781 -5.897 3.115
-16.2431 -5.08071 3.06507
-12.6246 -2.43008 2.60769
-11.8131 -2.94623 0.0261784
-17.389 -5.59556 0.949448
-10.7769 -3.88898 0.474701
-12.5684 -5.84969 1.13909
-11.8705 -3.0404 3.06718
-14.4276 -5.84893 3.28816
-17.1259 -2.43506 1.62954
-11.3487 -5.61002 1.05881
-14.4578 -5.17667 3.06599
-12.3215 -2.43121 2.83464
-15.3527 -4.5918 0.0139999
-13.6959 -4.689 0.00989723
-14.1012 -5.82636 2.32248
-11.1659 -3.17322 2.50536
-12.3675 -5.85464 2.71536
-11.7083 -5.2185 3.07289
-16.4364 -2.4386 1.13375
-13.0049 -2.44101 0.208101
-13.4353 -5.83603 2.65242
-14.1385 -2.65422 3.06395
-13.8401 -2.82284 3.06623
-14.3862 -5.86119 2.09181
-14.5242 -5.1472 3.0671
-17.0755 -5.82969 1.39267
-17.3803 -4.53597 1.24148
-13.4702 -2.44194 1.62538
-17.3823 -3.29435 1.21621
-13.3147 -2.4401 1.13474
-16.489 -2.44007 1.02807
-13.8215 -2.97074 0.00895882
-14.5504 -5.85943 1.97532
-17.3715 -5.59013 1.13348
-15.578 -4.93 0.789
-17.385 -5.25292 1.41963
-15.7109 -5.83804 1.77085
-17.3954 -3.60023 2.27456
-17.389 -5.39723 1.97803
-11.719 -3.60619 0.594374
-17.3968 -3.03136 2.45778
-15.0281 -5.84992 1.57321
-17.2331 -4.55083 0.0217094
-14.1795 -4.23807 0.0111027
-13.5746 -2.436 0.633472
-11.0698 -3.81242 3.07111
-13.0084 -5.60803 0.263878
-14.9192 -5.85215 2.1055
-15.9432 -5.61605 0.790884
-14.2935 -3.94509 3.07205
-16.6035 -2.433 2.33652
-15.9013 -2.44611 0.281046
-16.8754 -5.81134 2.88232
-14.1595 -2.50592 3.06162
-17.3779 -4.23027 1.23854
-14.0554 -5.61378 0.554235
-16.7674 -3.04401 3.06504
-10.9722 -3.18007 1.12916
-11.6246 -2.42713 1.3582
-14.285 -3.35917 0.00490379
-15.939 -2.43689 1.58468
-13.7852 -2.42983 2.669
-14.3814 -4.39391 0.0131836
-16.1352 -2.43408 2.93223
-15.4443 -4.29487 3.06843
-14.421 -2.43897 1.62007
-11.6221 -2.87268 0.425243
-12.3068 -2.43277 1.5164
-15.7893 -2.43544 2.99521
-11.3902 -3.65043 3.07204
-13.1912 -2.43005 2.61837
-12.6868 -5.84941 1.16293
-12.8009 -5.48715 3.06386
-14.2991 -3.70706 0.732182
-15.2778 -4.76615 3.06201
-12.6058 -4.72759 0.0130005
-11.6059 -2.87544 2.16498
-12.0732 -2.42747 0.0529232
-10.8217 -4.06745 3.06918
-10.6803 -4.76611 2.12048
-13.9402 -3.77135 3.07304
-14.937 -3.488 0.843002
-15.9091 -5.06364 3.06012
-17.3913 -4.76426 2.9929
-10.7151 -4.92735 1.03683
-17.3902 -4.97498 2.29395
-16.7368 -2.43299 2.1678
-14.9207 -4.41757 0.732244
-13.8252 -2.61007 0.0179729
-15.7417 -5.83817 2.04611
-15.8387 -2.43318 3.04596
-12.9694 -5.48263 0.0139866
-16.7882 -4.92185 3.06602
-15.2309 -2.439 1.05016
-15.2154 -2.4339 2.13186
-11.1212 -3.86158 1.88609
-13.6522 -5.0285 3.06997
-14.017 -4.257 0.459999
-17.406 -3.36716 2.60557
-16.2419 -3.88483 0.0218525
-15.1789 -2.43803 0.619701
-17.2407 -5.74428 2.41583
-13.8034 -4.62572 0.507883
-13.5247 -5.60999 0.312483
-11.3521 -5.19138 0.388802
-16.984 -2.44318 0.593128
-10.8761 -3.17483 2.88046
-12.5367 -2.431 1.80261
-14.6173 -2.77896 3.06481
-14.0468 -2.43179 2.20687
-14.6944 -2.49131 3.0535
-17.387 -4.8735 1.65088
-12.0732 -3.19677 0.0240078
-17.3833 -4.10445 0.488905
-10.651 -3.841 0.430004
-10.702 -5.03961 2.88822
-15.672 -4.95801 0.0130005
-13.5204 -3.46474 3.07474
-11.6047 -3.06548 3.01754
-12.2781 -5.61 0.597218
-14.4358 -2.43691 0.64439
-15.3971 -4.4948 3.06618
-17.3868 -2.59327 1.87486
-12.6257 -4.8209 3.07515
-15.6414 -2.43771 1.98942
-14.694 -4.535 0.688
-13.7675 -5.82994 1.20865
-15.2317 -5.61048 0.167093
-13.5679 -5.61099 0.666233
-17.3776 -3.50591 1.24188
-12.482 -5.09984 3.07078
-10.7174 -3.86314 0.833757
-11.7137 -5.91336 2.10195
-13.7272 -4.05679 0.0689259
-17.3855 -5.11872 0.0334492
-14.8451 -3.84802 3.0734
-17.3946 -2.84532 2.78724
-13.5558 -5.83329 1.18917
-14.6981 -5.85633 1.66031
-11.633 -3.786 1.147
-13.6776 -3.0496 0.0100155
-13.9264 -5.12113 3.06693
-17.3891 -3.93457 0.783491
-14.476 -4.631 0.459
-13.0438 -4.60565 0.0138645
-12.1478 -3.04602 3.07104
-11.6556 -5.67612 0.955549
-13.758 -3.933 0.465
-14.2782 -4.13281 0.00992203
-17.3871 -2.58874 2.00607
-10.7671 -5.56372 3.06139
-13.6889 -5.8319 1.18127
-12.8391 -5.84358 2.77433
-14.3845 -2.42903 2.41587
-10.7407 -4.79922 3.06649
-15.9672 -5.85931 1.72532
-17.3848 -5.6059 2.12349
-16.0277 -5.69684 0.950649
-14.4724 -5.86544 1.40484
-12.398 -3.8943 0.0170135
-11.3604 -5.60894 0.930676
-15.7984 -4.08088 3.09402
-11.606 -2.97816 2.19019
-16.562 -5.83218 1.31485
-16.9404 -4.34692 0.0181675
-16.7897 -2.43602 1.50338
-17.3908 -4.382 2.05974
-10.7029 -5.46486 2.19695
-11.1049 -5.47793 3.06744
-14.61 -2.43895 1.23754
-13.3371 -4.52238 3.10488
-15.1591 -4.06538 0.732916
-16.0042 -5.83456 2.01157
-14.116 -3.60799 0.732
-10.7077 -3.91824 2.23304
-16.286 -3.88523 3.07093
-11.4695 -5.15433 0.018137
-17.0775 -2.43706 1.29603
-15.1196 -3.82897 0.734013
-11.9949 -2.42797 1.95325
-14.7781 -5.86045 1.10232
-17.1735 -2.44166 0.408371
-17.3881 -5.41365 1.91154
-16.2193 -3.72548 3.07194
-16.0011 -5.54292 3.05767
-17.385 -3.25016 0.218826
-17.167 -2.459 0.261
-10.7027 -3.5938 2.6259
-13.7819 -4.70202 0.0098629
-16.4805 -2.44095 0.904591
-15.5777 -4.41245 0.726028
-15.1031 -5.87819 1.0057
-17.3949 -3.00599 2.3903
-11.6705 -5.83444 1.28321
-15.2216 -3.20457 3.07097
-15.5785 -2.43695 1.98193
-11.3634 -3.84736 1.47586
-14.0609 -5.16383 3.06583
-13.4353 -5.44896 0.0130596
-13.3889 -4.74394 0.011179
-14.1122 -2.43605 0.427185
-14.2039 -4.49037 0.0110321
-11.3671 -5.19692 0.279526
-14.5744 -5.85799 2.52794
-17.3813 -4.33249 0.155611
-12.67 -3.78122 0.017107
-11.8916 -4.56179 0.0150146
-15.0675 -4.27753 0.732111
-14.223 -5.6111 0.146135
-11.6851 -5.91341 2.41641
-11.2681 -3.17902 0.849274
-11.8059 -5.86328 1.66831
-10.9605 -3.87572 0.196011
-12.8165 -2.43601 1.2116
-17.3921 -4.20206 2.15045
-11.9874 -2.66092 0.0327778
-13.1326 -2.43997 1.38021
-15.8967 -2.44117 0.778522
-16.121 -4.559 0.731001
-17.189 -5.833 3.591
-11.6066 -2.90986 2.95565
-10.78 -3.17 2.233
-17.3858 -2.50582 1.7634
-11.6099 -3.00388 1.58353
-10.704 -5.40307 1.97037
-16.5762 -3.37708 3.06813
-17.3872 -2.94377 1.16024
-16.3889 -3.85122 0.0238132
-16.6589 -4.4295 3.06734
-16.7053 -2.44506 0.409536
-12.9494 -4.79356 0.0130138
-13.5285 -2.43807 1.89171
-14.6213 -5.85714 2.57172
-13.774 -4.3845 0.44895
-12.1858 -5.85688 2.49947
-11.5407 -5.55535 0.0211506
-13.9267 -2.42886 2.51745
-13.9501 -2.44066 1.74128
-13.939 -4.07005 3.07202
-12.5997 -2.436 0.923983
-13.6024 -4.36763 0.725393
-13.2447 -4.10494 3.07425
-16.834 -5.61598 0.560072
-12.2469 -3.90359 0.0169334
-14.674 -5.003 0.443001
-14.9573 -5.60999 0.929987
-12.6797 -4.38309 0.013916
-13.7241 -3.76286 0.731951
-14.202 -4.761 0.636
-17.2758 -3.24269 3.05667
-12.6436 -5.84425 1.11835
-14.1179 -4.83047 0.00909233
-13.0701 -3.55067 0.0140915
-15.3129 -4.50899 0.0138531
-14.1498 -5.61168 0.328695
-11.6131 -2.5483 2.94064
-14.1079 -4.56882 0.0121498
-14.1111 -3.53065 3.07187
-14.3118 -2.43595 0.477489
-14.8742 -5.85309 1.39957
-14.9674 -2.81257 0.0161285
-11.6274 -5.81412 2.23308
-16.5258 -4.88585 0.0157928
-16.8583 -4.67835 0.0192947
-15.9398 -5.41981 3.05802
-14.5395 -2.43932 0.299206
-14.359 -4.74699 0.447002
-15.1141 -2.43801 0.567335
-10.667 -4.439 0.00699997
-13.2578 -2.43886 0.404709
-17.383 -5.17502 0.191065
-15.0259 -5.61607 0.722692
-12.053 -5.859 3.041
-17.373 -5.60617 2.85054
-17.3879 -4.5483 1.54327
-13.0165 -5.83951 2.21942
-11.1753 -3.86678 0.118738
-13.8646 -2.50236 3.06943
-14.4732 -4.31687 0.731018
-10.8324 -3.85539 1.99647
-15.9247 -2.434 2.86028
-12.3462 -5.30026 3.06829
-14.766 -3.824 0.0230007
-12.5057 -5.85181 2.68744
-16.963 -5.48147 3.06612
-16.9926 -5.6295 3.06555
-11.5536 -3.1751 2.72414
-17.39 -4.37626 1.92695
-10.7077 -5.01392 3.06887
-12.1772 -2.53609 3.06283
-14.2847 -3.90388 0.730795
-11.3271 -3.17899 0.790499
-16.4616 -3.96524 0.726646
-14.9004 -3.49951 3.07416
-15.3786 -5.84372 2.99308
-16.2277 -5.82992 2.0899
-11.6027 -3.14539 2.58092
-16.1895 -5.01787 3.06397
-11.265 -3.86127 0.137964
-17.3394 -2.43192 1.92887
-14.947 -4.01 0.0189991
-14.3304 -2.43853 0.327719
-16.7573 -5.14432 0.0178299
-14.6274 -5.85622 2.16963
-14.1802 -2.60982 3.0628
-12.8689 -4.32533 0.0140419
-13.8656 -2.43683 0.338383
-16.342 -4.593 0.471001
-16.5958 -2.93742 3.06501
-12.2758 -5.85598 1.6369
-17.167 -5.852 2.878
-12.6098 -2.43508 1.51369
-12.4132 -3.39177 0.0209885
-13.6452 -3.93198 0.456873
-17.0225 -2.42723 2.94102
-12.0157 -4.54139 0.0139961
-15.863 -3.28272 3.07108
-14.4545 -5.60879 0.175306
-16.7923 -5.82016 2.09512
-14.9821 -5.60558 0.0529118
-16.896 -2.48696 3.05437
-13.9562 -5.82675 1.8173
-15.497 -5.816 3.629
-10.701 -4.5167 2.92466
-10.7021 -5.3258 2.09263
-17.3899 -2.61811 2.93016
-14.2781 -3.09379 0.00900459
-16.85 -2.432 2.38047
-11.2674 -4.34143 0.0164318
-15.387 -4.733 0.0139999
-14.9679 -5.85115 1.94731
-12.5665 -5.85107 2.19706
-14.0767 -3.09952 0.757288
-15.0275 -3.36016 0.473337
-11.0345 -5.03091 3.07207
-13.5266 -4.60742 0.0124874
-15.6242 -5.83972 1.47754
-13.9757 -2.43608 1.17442
-16.1361 -2.63931 0.014616
-12.2877 -2.44049 0.72838
-11.6081 -2.98475 1.7937
-16.7959 -2.43607 1.43066
-12.2382 -4.15332 0.0160065
-14.5104 -5.85936 2.55997
-15.6049 -2.43993 1.57734
-14.6038 -5.85763 2.26483
-13.4642 -4.68324 3.07787
-14.787 -4.81364 3.06407
-15.0713 -2.45885 0.0125408
-13.7505 -2.436 0.93017
-11.616 -2.57048 0.969109
-17.1575 -5.70548 3.08972
-13.1956 -5.83972 1.17605
-14.1189 -2.73157 0.0136833
-13.6919 -5.83154 2.53655
-15.1704 -2.71519 3.06501
-11.5325 -5.2209 0.241634
-12.6801 -5.14387 3.07006
-11.61 -2.84238 1.5975
-11.4351 -5.1784 3.07211
-11.7141 -3.67838 0.0212307
-13.7258 -5.83031 2.60517
-15.836 -2.76815 3.06517
-11.2347 -5.61792 2.52984
-17.2686 -5.61888 2.1656
-12.9147 -3.79893 0.0160103
-15.0857 -2.43991 0.392872
-15.8072 -5.23384 0.0182228
-11.7332 -4.04917 3.07397
-10.7782 -3.68566 3.06124
-17.385 -5.2756 1.48188
-17.3926 -5.25705 2.96766
-11.0602 -4.33445 3.07187
-16.3203 -4.22986 0.735994
-14.393 -5.61019 0.228966
-10.9697 -5.13789 0.137865
-14.4538 -5.84575 2.74253
-13.6724 -2.43666 0.0482903
-13.7158 -5.16429 0.00911713
-11.6758 -5.60555 3.10836
-14.9502 -5.61395 0.616331
-11.7988 -5.86183 1.26798
-12.7963 -2.43667 2.98412
-13.1411 -2.44017 0.258244
-17.3905 -2.66565 2.43672
-10.8855 -3.17413 2.72005
-15.8487 -5.83728 1.44379
-14.809 -5.6789 0.940722
-17.0348 -4.27029 3.06388
-12.5948 -2.43215 2.81648
-12.717 -5.84762 2.64745
-13.3133 -3.66835 3.07836
-16.2698 -5.81661 0.953659
-13.691 -4.36 0.382996
-11.4715 -3.1786 1.16323
-16.7945 -4.84176 3.06588
-14.0418 -5.61498 0.77734
-16.5992 -5.61394 0.440611
-10.8142 -5.60262 3.05547
-17.0728 -4.3045 0.018858
-15.8366 -4.27861 0.012888
-14.5004 -4.98222 3.067
-11.9773 -2.428 2.73158
-17.388 -3.0652 1.08428
-17.392 -5.2106 2.28272
-13.3513 -5.53887 0.0136261
-15.9809 -5.84293 1.96461
-11.6161 -2.5147 2.51067
-11.2549 -5.618 2.23401
-14.937 -5.5936 0.0132694
-11.7453 -5.86613 1.69741
-11.6721 -4.47267 3.07495
-11.681 -5.91227 2.3414
-15.1886 -3.75242 0.734545
-15.0073 -2.47798 3.06166
-13.167 -5.651 3.128
-14.8624 -2.43892 1.79985
-13.4754 -2.43611 0.51642
-13.6059 -4.38868 3.0761
-12.0015 -5.61449 0.888824
-11.6161 -2.88948 0.806046
-17.3806 -4.7907 1.0223
-17.3915 -2.45221 2.47507
-15.6944 -4.37459 3.06582
-11.1756 -3.17302 2.43532
-16.1253 -5.84026 1.19513
-12.6019 -5.30299 0.0139446
-15.6593 -3.82278 0.735075
-17.3297 -2.45178 0.598501
-10.641 -3.85 1.725
-13.9997 -2.42886 2.6253
-11.9878 -5.39579 0.0159492
-17.3888 -4.07497 0.730427
-14.4374 -3.93373 3.07307
-14.5754 -2.43106 2.28041
-11.4798 -3.17751 1.68431
-14.0335 -3.0045 0.00908852
-15.0059 -5.85077 2.39185
-12.8501 -3.75107 0.015974
-13.426 -4.5345 0.0150909
-15.2499 -3.84965 0.0228519
-15.6246 -5.8401 1.87126
-12.3933 -5.61305 0.903072
-13.5226 -5.83444 1.5786
-16.902 -3.29599 3.06569
-14.6115 -2.43481 2.09355
-13.9871 -5.61213 0.718344
-17.2366 -5.67721 1.38141
-12.2526 -3.0312 0.0217342
-16.4319 -5.60706 3.06466
-14.3163 -2.43788 1.23065
-12.2093 -4.59258 0.0140438
-14.7488 -5.8553 1.60769
-12.0959 -3.66552 3.09039
-14.2849 -2.43783 1.29394
-14.205 -4.03921 3.07099
-11.5461 -5.2695 0.0261383
-15.37 -5.84388 2.58882
-10.7106 -4.84763 1.86148
-15.3384 -2.43201 2.15229
-13.2538 -5.83855 2.57749
-12.1223 -2.426 2.21597
-11.7537 -5.8634 2.15152
-13.607 -3.8721 0.0189686
-14.1374 -5.611 0.260897
-17.383 -2.74232 0.946943
-11.6471 -5.81452 3.52354
-13.6565 -4.14768 3.07428
-17.2063 -5.82695 0.973196
-15.439 -5.67709 0.949039
-11.1872 -4.49102 3.07303
-14.1452 -5.46631 3.07384
-13.4534 -5.55113 0.0121288
-13.459 -3.626 0.379999
-15.2521 -5.83084 3.58311
-11.6091 -2.82076 1.72969
-17.3869 -4.15017 1.66743
-11.7116 -3.9136 3.07415
-17.3819 -5.3127 0.229158
-15.143 -5.84857 2.66128
-14.2513 -5.18147 3.066
-11.8966 -5.86175 2.08652
-13.9657 -3.16596 0.735971
-11.4222 -3.17772 2.72289
-11.4747 -3.87744 0.0188274
-13.3017 -5.60898 0.39443
-13.1802 -5.84333 1.09037
-14.884 -5.853 3.05501
-11.8622 -2.42992 1.8514
-17.1756 -2.4391 1.03191
-17.3364 -2.43955 1.3953
-14.2943 -4.59001 0.0110741
-13.1509 -5.61092 0.789686
-12.8358 -4.91662 0.0130005
-12.0257 -5.85886 1.50505
-12.2398 -2.43408 0.332767
-15.7956 -5.83776 2.9125
-15.678 -2.44584 0.226391
-16.7603 -4.25607 0.0181007
-12.9992 -4.39563 3.0751
-10.9047 -3.17907 3.06374
-12.008 -5.60284 0.0193863
-14.3645 -3.12914 0.00793457
-16.6258 -2.44404 0.489304
-17.3704 -5.59159 0.628988
-12.9695 -3.30105 3.07288
-15.3069 -3.42002 0.0150337
-11.8729 -5.86196 1.1709
-13.0274 -5.413 3.06501
-14.9522 -5.85043 1.13014
-14.2196 -5.82418 2.5784
-11.0739 -3.17298 2.6891
-14.4257 -2.43911 1.45594
-11.8526 -5.41547 3.08805
-14.167 -2.94638 3.06576
-13.0614 -2.43794 0.572744
-17.3891 -5.3294 2.01122
-13.714 -2.4367 0.175531
-17.2801 -2.43907 1.11362
-14.4668 -3.05178 3.0689
-10.7189 -5.05952 0.267986
-17.3874 -5.48294 1.66265
-17.3268 -4.76027 3.05551
-15.0364 -5.81682 0.99415
-14.787 -4.79901 0.459
-10.7006 -3.71119 3.04998
-13.2029 -2.96733 3.06803
-13.1334 -2.43817 1.58979
-10.7297 -3.85566 1.84696
-13.4859 -2.44321 1.55474
-15.3694 -2.43974 0.518724
-17.378 -3.49819 1.34199
-11.6377 -5.10723 3.0729
-14.2517 -2.43609 1.76484
-14.249 -4.732 0.637003
-11.5266 -5.61413 0.212091
-13.2324 -2.88768 3.0669
-17.3637 -3.12467 3.06025
-13.4562 -5.83562 2.06825
-11.5533 -5.61495 2.58265
-15.0379 -5.61906 0.943016
-10.9863 -3.87234 1.2701
-13.484 -5.43825 3.06386
-16.0679 -4.22899 0.735985
-14.6808 -3.38727 3.07185
-14.2322 -5.31355 3.06387
-15.1185 -5.16389 3.064
-12.8258 -4.52587 3.07512
-11.2862 -4.598 3.074
-16.0383 -3.08294 3.06798
-15.9708 -2.53446 0.0139122
-13.6547 -2.48766 0.0166073
-17.3889 -2.99632 1.98538
-16.5494 -5.82037 2.53407
-15.1276 -5.84871 1.84172
-15.2801 -4.4252 0.728807
-17.0049 -2.65085 3.06095
-14.3929 -2.43792 1.19253
-11.7315 -5.13624 0.0159817
-11.433 -3.54091 3.07205
-14.0655 -3.81997 3.073
-12.2414 -5.85048 0.988077
-16.1237 -5.8258 2.87573
-11.1175 -3.17294 2.00566
-13.391 -2.44298 1.4362
-16.9342 -2.43207 2.39452
-11.36 -4.15263 3.07397
-17.3818 -2.62648 0.833357
-14.2048 -4.79662 0.682577
-14.3909 -5.83062 1.76795
-14.38 -5.82028 1.51554
-13.8643 -3.69378 3.07411
-10.701 -4.65167 2.88256
-11.6182 -2.612 3.06292
-16.9908 -5.8134 2.4766
-11.1035 -5.14623 0.466761
-13.9353 -4.57935 0.0123024
-12.0223 -5.609 0.639805
-16.166 -4.564 0.691
-13.3219 -3.9159 0.0170078
-15.8231 -5.83702 2.32829
-11.0883 -3.17314 2.08077
-11.6108 -2.65259 3.00839
-16.1755 -2.44103 0.802958
-15.9852 -2.44094 0.676643
-14.853 -5.85378 1.81722
-15.0979 -5.84924 1.70637
-16.3874 -5.48431 3.06315
-16.3573 -4.55225 0.0125046
-11.6174 -2.64302 0.57106
-14.8259 -5.60634 0.085598
-10.7021 -4.32661 2.90841
-16.7242 -2.61665 3.06392
-11.6952 -5.87488 3.54811
-15.1378 -2.44112 0.295616
-11.2216 -5.61799 2.15075
-15.1724 -4.47661 3.06662
-16.6466 -2.44598 0.269194
-10.7258 -5.25892 0.970482
-17.385 -5.07595 1.2643
-12.1505 -5.61246 0.942739
-11.1527 -3.1779 0.755728
-13.3341 -3.63754 0.015192
-17.2505 -3.40101 3.0537
-11.2116 -5.59472 0.707449
-13.349 -5.856 3.568
-12.8936 -2.43201 2.8146
-11.3372 -5.29605 0.491978
-15.504 -5.838 3.564
-10.862 -5.12831 0.0420532
-12.0833 -5.85781 1.96775
-11.9652 -5.86032 2.05028
-15.5542 -5.61364 0.263426
-17.39 -4.50271 1.88061
-17.0707 -2.4309 2.59219
-13.9403 -3.35327 0.00895882
-12.9264 -3.44657 0.0156574
-15.1765 -5.60801 0.130636
-11.6211 -5.28852 0.0179977
-17.3889 -5.15845 2.05231
-10.7011 -4.64017 2.4759
-14.4531 -5.2919 3.06405
-16.0682 -2.44233 0.0991287
-15.9601 -5.61414 0.380629
-12.7724 -3.42751 3.07506
-11.6084 -3.21628 3.0782
-17.3889 -3.40578 1.9592
-17.3793 -3.45156 1.41568
-14.051 -2.43591 0.472593
-14.9847 -2.89789 3.06681
-17.0432 -3.45512 3.06018
-13.646 -2.97482 0.0100803
-12.2845 -5.61007 0.774858
-16.5044 -3.99225 3.06995
-17.389 -4.63615 1.89486
-13.4837 -5.03482 0.0084877
-12.0467 -4.87128 0.0140305
-13.1937 -5.84014 2.03845
-10.7165 -4.80327 1.24217
-14.576 -5.60992 0.32044
-17.3302 -2.43615 2.57719
-16.4969 -5.45863 0.0188637
-14.9907 -5.85051 2.50056
-17.0374 -2.44302 0.630182
-15.985 -2.43447 2.96382
-13.3052 -5.28894 3.06601
-14.4619 -2.43072 2.23907
-15.7808 -2.43801 1.47541
-17.2476 -5.75607 2.88128
-16.3166 -2.43082 2.94103
-13.0167 -2.42804 2.34663
-14.4283 -5.6109 0.300274
-11.5549 -3.18203 1.41976
-12.0855 -3.92951 3.09021
-17.391 -5.4476 2.65103
-10.7258 -4.84137 0.0355282
-12.6401 -3.50447 3.07515
-11.3118 -3.84743 1.88097
-14.9926 -5.68306 0.942312
-15.344 -4.67402 0.0139999
-17.387 -3.87291 0.715462
-16.267 -5.61089 0.212296
-14.3792 -5.08551 0.48884
-14.1543 -2.43699 1.58104
-17.393 -4.79516 2.7699
-13.3141 -2.49033 0.0175438
-17.3909 -4.09359 1.90761
-12.9727 -4.63698 0.0130386
-15.5128 -2.439 0.861715
-16.2539 -5.04409 0.0179768
-14.494 -4.50905 0.733801
-16.3888 -2.51061 3.06849
-13.901 -5.82808 2.11532
-12.412 -5.85392 1.43561
-13.0621 -4.98728 0.0130863
-14.9468 -5.1733 3.06508
-13.762 -3.998 0.467001
-11.968 -5.60703 0.197294
-10.7062 -3.49728 2.74055
-10.7026 -5.60858 2.02798
-17.1173 -4.75653 3.06311
-13.4249 -4.2569 0.0160332
-14.7167 -2.43456 2.24831
-16.8565 -3.35018 3.06613
-17.3895 -5.5176 1.37095
-10.7078 -4.38676 2.21688
-13.8538 -5.82809 1.37245
-12.2261 -2.44198 0.671062
-16.0324 -3.16802 3.06999
-15.823 -5.83792 1.91296
-14.581 -4.95327 3.06711
-16.6263 -5.61581 0.676641
-12.7006 -2.42799 2.18975
-13.4461 -3.9274 3.17793
-16.3814 -5.82463 2.40405
-12.7176 -3.73072 3.076
-13.8612 -5.61198 0.798824
-10.901 -3.17095 2.28095
-16.929 -5.82265 1.63257
-15.3252 -3.27849 3.07137
-16.3479 -4.82587 3.06198
-17.3774 -5.49318 0.223461
-14.3713 -4.8072 3.06793
-12.0324 -5.85894 1.21642
-12.181 -5.63301 3.082
-16.4665 -4.05292 3.0701
-17.386 -4.94767 1.39747
-16.3825 -5.82697 2.14736
-15.9304 -4.83421 0.563734
-17.1955 -2.43189 2.16791
-15.3214 -3.28644 0.0148773
-14.6568 -5.45908 3.0618
-12.8068 -5.60805 0.368721
-15.6961 -5.83892 1.60026
-11.2062 -4.86415 3.07294
-13.6028 -3.29534 0.01091
-11.8086 -5.60706 0.285122
-13.0645 -2.72908 3.066
-13.5892 -4.62559 3.07671
-11.8605 -5.86187 2.39814
-10.7138 -4.8558 1.44517
-15.6744 -5.61381 0.358025
-14.2875 -5.61905 0.870655
-15.4638 -2.44326 0.272455
-13.2504 -4.65143 3.07065
-11.524 -5.438 3.0699
-16.2395 -2.43803 1.31904
-14.5458 -4.039 0.731932
-14.0027 -2.42899 2.54129
-16.214 -5.817 3.621
-16.5004 -2.43803 1.18615
-10.7018 -5.38794 2.29803
-17.359 -3.678 0.0279999
-13.8112 -4.16824 0.210745
-13.8647 -5.82809 1.07892
-13.2995 -4.04312 3.07239
-11.3958 -3.17812 1.59993
-12.7335 -5.90359 1.18161
-16.7467 -2.87867 3.06392
-17.4072 -3.61749 2.95946
-14.8321 -5.34532 3.06426
-15.0751 -2.43596 1.87856
-13.2695 -2.43347 1.9878
-16.0276 -3.94508 0.736021
-15.1179 -2.65623 0.00673485
-13.2542 -5.62779 0.942034
-12.8262 -3.43229 0.0158501
-14.1341 -4.6227 3.06891
-11.7655 -2.42809 2.08021
-15.1122 -5.6102 0.192411
-17.3913 -4.28056 1.91552
-14.3729 -4.43282 3.06903
-11.0326 -4.71086 0.0110474
-15.9078 -5.83625 1.37089
-10.9936 -3.17103 2.39874
-12.4536 -2.43723 0.339331
-15.5643 -5.84074 2.9654
-17.2318 -5.82217 2.2971
-17.3856 -3.78382 0.636261
-15.2869 -5.84541 2.31314
-14.9623 -4.98735 0.0120201
-10.831 -5.61299 2.99781
-14.6488 -5.85645 1.86376
-14.1781 -5.13582 0.00799561
-15.3696 -5.73517 0.948383
-10.992 -4.49921 3.07201
-15.465 -2.43196 2.21823
-14.7893 -3.81131 3.0735
-12.9094 -4.7373 0.0130005
-17.3951 -3.31725 2.2812
-16.8804 -2.44655 0.199429
-16.3959 -5.83311 1.50847
-11.2589 -3.17473 2.52711
-17.387 -2.66029 2.04599
-11.6921 -2.42983 3.05148
-12.3115 -4.3777 0.014122
-11.9205 -2.63603 3.06483
-14.9844 -5.7763 0.942509
-13.4656 -3.33552 0.0110359
-11.693 -5.921 3.438
-12.384 -2.42713 2.4203
-13.8347 -3.50073 0.653242
-10.7287 -5.53234 0.794954
-11.6999 -2.88853 3.06429
-10.83 -3.174 1.779
-12.042 -3.50284 0.471027
-15.1045 -2.68124 3.06502
-15.6761 -5.61494 0.732012
-17.1957 -4.82588 0.0240173
-11.6059 -3.02341 2.12762
-10.7142 -4.7489 1.01621
-15.151 -2.44985 0.0574074
-15.4192 -2.43098 2.44044
-14.2614 -5.823 1.37245
-17.3112 -2.44493 0.756977
-14.728 -2.57514 0.0110474
-15.6911 -2.43279 2.27032
-12.8978 -2.43587 1.61616
-17.1469 -5.59375 0.037672
-11.6579 -5.60693 0.392157
-11.2643 -5.53273 0.705042
-13.4279 -5.03103 3.07168
-11.4217 -5.60569 0.112242
-15.5828 -2.43797 1.12946
-14.7012 -4.36272 0.0228996
-10.7016 -5.5598 1.99683
-12.635 -5.84976 1.92336
-17.3842 -2.61229 0.402277
-15.8438 -2.43386 2.85461
-16.3817 -3.97181 0.730438
-17.3859 -4.56744 0.397087
-14.1054 -2.43701 1.05488
-11.5085 -3.17503 0.878231
-16.2799 -4.35691 3.06483
-14.0753 -5.82616 2.99462
-12.2465 -2.93626 0.460838
-12.3004 -2.42761 2.53527
-13.7223 -2.48014 3.06347
-11.6095 -2.68214 2.60155
-14.6789 -5.85598 2.30913
-12.9689 -4.63605 3.07394
-14.451 -5.04147 0.419336
-13.0765 -2.43247 2.00282
-13.1038 -5.84186 2.58678
-14.4865 -5.45156 3.06193
-17.1788 -5.62432 0.867912
-16.2052 -5.80665 0.946438
-15.4228 -4.21292 0.729338
-10.909 -5.616 2.08879
-16.5673 -2.43395 1.97267
-16.2032 -5.8271 2.44084
-12.2255 -4.51857 3.11923
-16.49 -4.3498 0.734461
-12.2072 -2.43494 0.992195
-14.9256 -5.852 2.97231
-16.3331 -2.435 2.83836
-13.1269 -5.61089 0.725187
-14.0035 -2.43106 2.80134
-15.0947 -4.57783 3.06469
-17.3836 -2.67725 0.731447
-14.703 -5.665 3.079
-16.2548 -2.43389 2.80317
-15.9494 -5.83552 1.31604
-10.7852 -5.61525 2.13601
-13.4827 -2.45384 0.00943947
-14.609 -5.66534 0.939226
-11.9324 -3.25903 0.0243244
-17.3958 -2.88214 2.70971
-15.9568 -3.8652 3.10582
-14.93 -4.69083 0.0200081
-15.5418 -4.44454 3.06591
-17.39 -4.47245 1.80464
-13.54 -2.9973 3.06794
-14.6314 -4.13275 0.732121
-17.0514 -5.61795 0.672607
-12.9107 -4.53783 3.07483
-13.9389 -4.34343 0.46563
-13.1796 -4.33185 0.0150681
-11.4146 -3.76875 3.07313
-12.2242 -3.01146 3.07114
-15.415 -4.76852 0.0152092
-12.3259 -2.79098 0.0199566
-17.387 -4.83906 1.57035
-17.3861 -3.02157 0.306906
-13.7569 -3.1553 0.00995255
-16.3688 -2.43302 2.63192
-11.6008 -5.64299 2.21457
-13.1753 -5.84001 2.63021
-13.3559 -4.1382 3.10807
-17.0739 -2.43101 2.4627
-11.6797 -3.61591 0.672642
-13.817 -2.44164 0.11223
-12.1333 -5.85726 2.8793
-12.8093 -2.42916 2.48139
-10.775 -5.06826 3.07041
-11.3871 -3.17913 1.13186
-17.3849 -3.64294 0.520515
-13.3779 -4.59953 3.13315
-10.9208 -4.30905 3.07095
-16.5967 -4.70232 0.0149937
-13.0783 -5.84209 2.25153
-11.4786 -5.61068 0.161686
-17.3101 -5.26177 3.05829
-13.2589 -4.35578 0.0149956
-14.8565 -2.62409 3.06408
-13.9145 -5.87117 1.05364
-10.7192 -5.21014 0.816612
-15.4236 -2.44 1.54929
-12.94 -2.52879 0.0191116
-14.8046 -5.81783 0.963594
-12.2142 -5.35117 3.06972
-17.1268 -3.7914 3.06262
-15.3736 -2.43903 0.998583
-17.3849 -5.16949 1.14391
-17.2365 -5.77697 3.22583
-12.6959 -3.02194 0.0166912
-14.413 -3.772 -0.00399971
-13.1158 -4.47776 3.07405
-14.3327 -5.82406 1.35921
-11.837 -4.51811 3.07592
-14.5894 -3.24315 3.07191
-17.4048 -3.53851 2.9393
-16.8084 -2.43695 1.34764
-17.1527 -2.63981 3.0564
-12.4192 -5.60792 0.322313
-13.4494 -4.39132 3.17382
-10.7448 -3.1784 3.02633
-15.5255 -5.61395 0.54542
-10.7061 -3.692 2.8768
-10.7114 -4.78067 0.66044
-11.7201 -2.42671 2.20073
-12.444 -5.85291 3.58057
-12.5949 -4.08238 0.0158787
-14.098 -3.057 0.773001
-10.7041 -5.41223 1.90966
-11.9841 -2.64605 3.06483
-14.6489 -2.63397 3.06321
-17.3853 -2.75941 1.31942
-11.2243 -5.61287 2.81154
-16.7892 -4.63192 0.0180378
-13.4532 -2.42895 2.39348
-13.0109 -3.51133 0.01404
-17.1144 -5.62909 0.90283
-11.5533 -3.84063 1.49449
-11.0682 -3.87025 0.285831
-11.7752 -3.72922 3.07299
-11.6002 -3.1609 3.01572
-16.0895 -5.40081 0.0220127
-12.7593 -5.24812 3.0683
-15.1633 -3.11398 0.0160007
-12.0179 -5.60494 3.08777
-13.7804 -4.26065 3.07173
-13.7757 -4.71832 3.07237
-17.3851 -3.43914 0.23246
-15.5087 -5.84204 2.0304
-13.998 -2.43705 1.58954
-15.9149 -3.72348 0.735868
-11.9546 -4.2886 0.014986
-11.9759 -3.14115 3.06892
-17.3813 -2.62799 1.01315
-10.7023 -3.86005 1.6758
-16.1376 -2.43994 1.07269
-12.0078 -5.609 0.714752
-16.849 -5.8284 1.12137
-14.8894 -4.31076 3.07076
-10.9115 -3.87714 1.27175
-11.9819 -2.43436 1.02456
-16.511 -3.842 0.723
-10.702 -5.21718 2.63754
-11.0304 -5.59427 3.06399
-10.651 -3.859 1.183
-14.6567 -4.72002 3.06419
-17.386 -2.82692 1.19901
-11.6221 -2.90032 0.351381
-17.3891 -4.60165 1.75451
-12.4893 -4.18637 3.07702
-16.5601 -2.433 2.38852
-14.8446 -2.92242 3.06685
-11.116 -3.86248 1.81611
-10.7176 -4.81182 0.546274
-13.3154 -5.61333 0.053215
-11.7782 -5.86347 1.80407
-14.4335 -5.84471 3.20576
-11.9814 -3.77805 0.473053
-11.0258 -5.14393 0.485298
-12.5448 -2.73787 3.0658
-10.7082 -5.32451 1.61017
-12.3799 -3.66223 0.0190163
-14.9477 -5.85205 2.35583
-17.3822 -5.45101 0.976469
-13.701 -2.436 0.721519
-16.6639 -2.88788 3.06501
-17.1757 -5.14167 0.0211468
-11.3628 -5.618 2.3295
-15.2133 -5.54129 3.06187
-16.7825 -5.0187 0.0169163
-14.3409 -4.94569 0.601353
-16.5107 -2.43909 1.12694
-14.0885 -2.43869 1.77574
-11.0378 -3.17843 2.96701
-12.6501 -2.44048 0.15933
-11.1082 -3.17897 0.811716
-16.9792 -2.43821 1.20098
-11.8767 -5.60705 0.224569
-12.5634 -5.8712 3.57284
-12.17 -2.79901 0.467453
-17.0536 -5.61544 0.422533
-16.1802 -4.04152 3.06991
-15.4738 -5.84279 2.7966
-17.3203 -5.05447 3.05433
-10.7226 -3.1799 2.79245
-14.5306 -2.76975 3.06602
-16.4436 -2.44207 3.0501
-11.6111 -2.58807 1.56475
-17.1767 -5.35979 0.0201283
-15.5914 -4.97271 0.0142784
-13.3339 -4.97717 0.00995636
-13.8342 -4.88215 3.07029
-12.2495 -5.02907 0.0140266
-13.9538 -5.82705 1.75855
-17.3847 -4.97459 0.301191
-13.306 -5.903 3.569
-11.0501 -3.8666 1.42271
-17.3941 -4.30952 2.36747
-15.3351 -4.9932 3.06304
-11.8512 -2.72361 0.0285778
-15.5552 -2.44731 0.0772877
-11.2388 -3.85969 0.946131
-17.3869 -5.21467 1.88236
-14.9618 -2.43581 2.13084
-11.0321 -5.61504 2.70429
-15.0138 -2.43898 1.23897
-11.1789 -3.17906 1.11477
-11.6158 -2.84516 0.859554
-11.6078 -3.0744 1.55307
-14.8977 -5.32525 3.065
-15.8457 -4.14073 3.1672
-11.9108 -4.09061 0.015974
-13.4107 -5.22481 3.06772
-12.4007 -5.27687 3.06889
-11.1601 -5.14615 0.399345
-12.1047 -2.42896 1.6978
-10.7907 -3.17113 2.91454
-14.935 -5.809 3.627
-12.4738 -4.77978 3.07668
-10.8374 -5.61791 2.05781
-14.7669 -5.21003 0.0139027
-16.7588 -5.11221 3.06704
-15.1795 -5.84813 2.72638
-17.1029 -2.87716 3.06396
-11.1898 -5.5108 0.703005
-16.1597 -2.43505 1.85039
-14.5867 -2.43703 0.563576
-17.386 -2.94556 0.293955
-11.607 -2.75922 2.11676
-17.117 -5.24457 3.06211
-14.4402 -2.90596 3.06665
-14.4657 -2.429 2.38412
-12.3105 -2.45615 0.075922
-14.4366 -5.84217 3.04796
-15.0977 -5.6108 0.272911
-16.6527 -2.43688 1.40742
-13.8312 -4.23868 0.478138
-12.0283 -5.85911 2.41411
-11.9836 -3.46847 0.480217
-14.4915 -3.17672 3.07098
-13.6142 -3.92759 0.730318
-14.125 -2.436 0.494774
-17.3947 -4.17013 2.2316
-16.9793 -5.82234 1.49389
-17.393 -5.24505 2.52016
-14.5269 -5.61583 0.722149
-17.397 -3.34052 2.36738
-13.894 -5.82802 2.66634
-12.6367 -3.03913 3.07011
-15.5928 -2.43802 1.32214
-17.387 -4.86127 1.50068
-12.744 -5.84734 1.75134
-17.3483 -5.59589 0.154562
-17.3888 -2.66482 2.35017
-13.5453 -3.86517 0.437002
-15.1026 -2.43626 1.962
-15.4373 -4.69596 0.0141869
-16.2456 -2.434 2.19687
-17.2383 -5.63997 2.30574
-12.7098 -2.43292 1.67416
-17.383 -3.71574 0.264891
-12.341 -5.85489 2.92997
-17.3936 -3.57049 2.19613
-14.4863 -5.61607 0.777199
-16.4011 -5.44266 0.0190277
-13.3888 -3.32758 0.0120106
-14.4049 -5.8748 2.63459
-16.8092 -2.43405 1.81078
-17.3941 -5.13569 2.79028
-12.5067 -2.431 2.76528
-11.4182 -3.84672 1.20222
-12.0468 -2.94396 3.06824
-14.4863 -2.438 1.08229
-11.3141 -5.10678 0.0180492
-11.681 -5.912 2.5
-13.6734 -4.49512 0.72662
-14.5246 -5.29155 0.0130596
-17.389 -4.70399 1.93685
-12.7659 -2.98308 0.0158997
-13.2742 -3.72431 3.07362
-17.3815 -3.36779 1.4145
-15.5081 -3.70524 3.07305
-11.6132 -2.4924 2.31257
-16.0303 -5.08552 3.0612
-17.3871 -3.25591 0.740313
-12.1737 -4.46106 3.12742
-17.3246 -2.42278 2.34998
-10.7111 -5.61471 2.51357
-13.2847 -5.8388 1.91537
-12.317 -2.43642 0.387737
-11.683 -5.915 3.099
-13.7994 -3.73878 0.731064
-11.7614 -5.59052 3.10899
-13.849 -3.47196 0.00937462
-16.4852 -2.43288 2.48227
-10.961 -5.6142 1.57421
-11.1505 -5.6128 3.01068
-10.8028 -4.74973 0.00775719
-14.481 -5.653 3.071
-11.3059 -4.02339 3.0741
-11.1641 -3.86722 0.0478096
-13.8778 -4.74675 0.00909996
-13.6596 -2.43812 0.302246
-13.7962 -2.43998 1.39344
-11.3563 -5.60842 0.725597
-10.923 -5.13984 0.502245
-14.6062 -5.6131 0.588284
-15.3194 -4.25025 0.7302
-17.385 -5.03222 0.610226
-13.987 -5.14439 0.00926018
-13.1044 -2.43806 0.998096
-16.7605 -5.82401 1.7085
-14.9907 -3.92689 0.731981
-10.701 -4.82075 2.81013
-14.5173 -5.85997 2.11374
-15.1332 -2.43889 0.7743
-17.1262 -5.86025 1.10292
-16.475 -5.81702 2.98453
-12.3945 -4.8719 0.0138893
-13.3781 -5.48048 0.0129719
-17.0034 -4.45259 0.0189533
-17.384 -4.11542 1.50747
-16.1675 -2.65464 3.06405
-16.4428 -2.43201 2.66827
-14.0165 -4.64215 0.651361
-16.874 -3.91 0.0259991
-16.6755 -2.43101 2.81263
-12.0925 -5.77569 0.957672
-16.0062 -5.22698 3.05894
-15.104 -2.81916 3.06695
-16.1438 -5.82317 2.9954
-10.7085 -4.50327 2.16069
-16.8576 -5.61715 0.704071
-12.5573 -5.60898 0.558294
-11.277 -3.851 2.139
-13.7162 -4.17003 0.729313
-15.7599 -5.83711 1.87391
-13.7953 -5.8299 2.28616
-16.1896 -4.95176 3.06312
-13.6371 -5.83189 2.58864
-13.6377 -2.43085 2.73401
-11.0809 -3.37056 3.06579
-11.6184 -3.03323 0.600939
-15.3247 -2.43099 2.37794
-12.7335 -5.84322 0.991859
-14.6512 -3.96439 3.16384
-11.65 -2.88018 0.102942
-16.8066 -2.43395 1.73532
-17.3852 -4.2893 0.578619
-14.5796 -4.85503 0.0109921
-13.0819 -5.37141 3.06501
-13.4059 -4.11352 3.14539
-15.0882 -5.61326 0.477802
-12.4339 -5.7735 0.958162
-14.4353 -2.43896 1.5424
-16.9072 -5.61701 0.660976
-15.648 -3.63101 0.736
-17.3771 -3.61121 1.42597
-17.383 -3.77589 0.218079
-12.3559 -5.50779 0.0155296
-13.8599 -5.60606 0.875916
-15.6647 -2.43197 2.5662
-10.7265 -5.61144 2.8935
-16.0318 -4.65063 3.07148
-17.0356 -5.42254 0.0189381
-15.291 -5.60957 0.171415
-17.385 -5.13616 0.418327
-16.77 -4.64297 3.06702
-13.0965 -5.84165 2.03327
-12.8008 -3.79975 0.0169964
-11.8184 -5.19355 0.0159893
-11.126 -3.17713 1.41276
-13.8672 -5.65113 3.08397
-12.5281 -4.52291 3.07803
-14.6601 -2.43891 1.53425
-16.1459 -2.44308 0.565178
-16.3382 -3.42625 3.07092
-16.7492 -3.11616 3.06491
-12.5749 -5.88104 0.990562
-15.2898 -4.50884 0.726974
-10.715 -4.98418 0.700415
-12.7232 -2.43198 2.83285
-10.7052 -3.89919 2.52152
-11.0083 -4.20745 3.07104
-17.2903 -5.59982 3.04217
-15.9045 -5.14174 3.05898
-17.3829 -4.29263 0.0859261
-17.3965 -2.52994 2.51601
-11.0762 -4.05542 0.0142021
-11.6119 -5.608 0.552168
-15.7396 -3.64877 3.08329
-16.7706 -5.82994 1.14561
-12.2782 -3.30379 3.07391
-17.3827 -4.33802 1.48292
-11.7566 -3.41783 0.664043
-12.01 -2.95916 0.469528
-12.1645 -5.61003 0.741793
-15.5202 -5.8419 1.54134
-13.9638 -4.46893 0.72938
-17.3813 -4.31534 0.292585
-15.8707 -2.43783 2.15981
-16.5107 -2.43699 1.33876
-15.3847 -4.76894 0.442419
-16.7552 -2.43201 2.52769
-16.3639 -2.43304 2.55176
-15.1828 -5.6148 0.602432
-17.3761 -3.8481 1.27381
-12.2358 -3.98867 3.15576
-14.0525 -5.82912 1.08761
-11.2105 -3.43664 3.06821
-16.335 -3.647 0.736
-14.8586 -2.96311 0.0161781
-12.7849 -3.3639 3.07386
-17.3848 -4.41684 0.451651
-17.2812 -3.63244 3.05255
-14.8764 -2.43916 3.01716
-11.759 -5.665 3.111
-16.4669 -5.77085 0.949465
-10.8916 -5.28801 3.06929
-14.1408 -4.1508 0.00966644
-17.38 -4.18858 0.277081
-15.4919 -2.98101 3.06802
-10.8691 -5.13967 0.236814
-17.3931 -4.66449 2.56098
-17.394 -4.60111 2.63403
-17.3934 -3.82748 2.14274
-10.7129 -4.7544 1.32067
-17.3904 -3.30431 2.12443
-16.367 -4.30141 0.73497
-13.682 -4.283 0.363001
-12.174 -3.404 0.437
-15.3324 -2.82164 3.06707
-14.8679 -3.84329 0.731003
-11.6217 -5.81446 2.48242
-12.2926 -2.42907 1.88677
-11.616 -3.136 0.662998
-17.0604 -2.43504 1.59197
-13.6842 -4.85143 3.07348
-13.982 -3.588 0.726999
-16.803 -4.86622 0.0169773
-17.3868 -3.79282 0.708624
-11.1573 -4.48164 0.0130386
-10.7011 -4.46106 2.87094
-15.6847 -4.83295 0.590883
-17.3193 -2.43654 0.468851
-11.4289 -5.04345 0.015131
-17.3862 -3.20176 3.05868
-16.2312 -2.43499 2.01029
-16.7167 -4.86805 3.06569
-10.7036 -4.41727 2.48493
-13.86 -4.11654 3.07201
-15.9558 -5.61023 0.125582
-17.06 -5.61098 0.204506
-11.4014 -5.49098 0.286135
-11.1481 -3.17962 0.897913
-16.194 -5.61309 0.345257
-17.3914 -2.47343 2.15535
-16.5419 -5.82473 2.04018
-16.9078 -5.75016 0.941696
-15.8008 -2.44767 0.172775
-10.9864 -3.8735 0.885267
-17.3841 -3.71915 0.33753
-17.3926 -2.74088 2.46611
-12.4598 -2.43485 1.23682
-11.612 -2.86652 1.26779
-17.3756 -3.58558 1.13008
-14.46 -5.61284 0.498865
-12.1479 -4.53424 3.11119
-17.3784 -3.96536 3.05199
-14.2741 -5.82028 2.70839
-17.385 -2.97785 0.235138
-15.3539 -2.43198 2.66502
-11.1948 -4.65548 0.0129795
-17.3931 -4.79256 2.84817
-12.6348 -5.84997 2.43663
-13.124 -3.5915 3.07498
-12.3211 -5.85189 3.57071
-14.1759 -3.98878 0.731001
-15.9295 -2.44107 0.721273
-14.4401 -5.84297 2.47361
-17.385 -4.98478 0.86677
-12.8076 -5.61117 0.827509
-14.1936 -3.06814 0.581516
-11.3421 -4.44231 3.07405
-16.0374 -5.43882 0.0213299
-15.3246 -5.84501 2.13904
-13.9136 -2.43505 0.470072
-10.651 -4.103 0.00699997
-10.702 -5.0154 2.71781
-16.2573 -5.01295 3.06392
-13.7959 -3.52988 0.720894
-14.3718 -2.43703 0.788754
-11.0106 -3.87201 0.563454
-17.3846 -2.46244 2.34241
-16.6598 -3.98165 0.0223064
-12.492 -4.56147 0.0138798
-17.2411 -5.70093 3.11575
-14.3089 -5.82638 1.55553
-11.4072 -3.21791 3.06812
-15.1503 -2.44608 0.124468
-16.2308 -2.43297 2.45802
-14.1803 -2.43592 0.544706
-12.7158 -2.45044 0.0581646
-11.6716 -5.60791 0.780378
-12.0754 -2.57621 0.759136
-17.405 -3.65197 2.83129
-14.0667 -2.43212 2.12146
-12.1274 -3.3573 0.0230865
-16.3939 -5.82096 2.74926
-14.007 -3.116 0.813002
-13.1877 -4.41218 0.0140915
-13.0313 -2.43702 0.766829
-10.7219 -5.22854 0.873096
-11.7143 -4.14409 3.07497
-15.1262 -2.439 1.15007
-11.975 -4.8359 0.0150261
-17.169 -5.85778 2.05804
-11.1373 -5.618 2.30273
-15.9607 -4.49288 0.727856
-13.7189 -5.69175 0.948074
-15.2479 -5.19292 0.00894165
-11.5189 -5.61282 1.58108
-10.7053 -4.07601 2.39078
-10.8184 -4.80141 3.07117
-15.5062 -2.43896 0.663462
-12.2532 -5.66809 0.946112
-15.4627 -5.61398 0.542084
-14.4421 -4.58736 3.06456
-15.4247 -3.83248 0.734896
-10.7383 -4.20644 3.07304
-14.8738 -3.34374 0.548014
-16.3429 -2.43511 1.71073
-14.6001 -4.98253 0.011095
-11.5782 -5.47104 0.0270462
-13.786 -5.61105 0.549219
-15.2525 -4.43463 3.0669
-17.1092 -2.43406 1.7954
-16.4927 -3.1357 3.06688
-10.65 -3.876 0.00799942
-17.389 -4.52692 1.63153
-17.3869 -4.75725 1.30673
-13.6016 -5.83312 1.70431
-15.8912 -3.92335 0.736055
-14.2281 -4.15324 3.07099
-17.3852 -4.99628 0.791327
-10.832 -4.29451 3.06995
-16.5909 -2.43186 2.54044
-15.078 -4.012 0.0179996
-12.995 -5.56827 3.06568
-10.9245 -5.14715 3.07122
-12.7412 -5.84758 2.71277
-15.4307 -4.04813 3.07205
-15.8395 -4.9474 0.0170975
-12.9087 -2.81291 0.0148716
-16.884 -2.43714 1.33096
-15.7401 -2.42781 3.05449
-17.3854 -5.45881 1.3678
-13.4732 -2.43605 0.814524
-14.1198 -2.43704 1.51155
-13.6288 -5.43189 0.0120831
-12.1849 -2.4249 2.33886
-15.2088 -5.61214 0.317591
-13.4948 -2.64852 3.06429
-11.8335 -5.48417 3.09284
-10.7069 -5.17624 1.79137
-16.7858 -5.82398 1.75584
-13.3992 -3.9839 3.1522
-12.1502 -3.55885 0.451309
-13.2117 -5.83962 2.98237
-14.3885 -5.21742 3.06579
-13.8855 -2.43593 0.900322
-15.453 -4.956 0.745001
-14.1698 -4.63332 0.0118675
-12.7456 -5.90354 1.69982
-13.499 -5.5726 0.0137215
-10.9547 -5.618 2.45031
-12.798 -2.42815 2.20092
-11.833 -4.55312 0.0149384
-15.592 -5.844 3.559
-15.2368 -2.439 0.969347
-15.1161 -5.84916 1.77593
-13.4 -5.854 3.568
-11.5451 -5.52523 0.184895
-11.1118 -4.87562 3.07294
-14.5222 -5.85824 1.27624
-14.8036 -3.19656 3.07003
-12.4928 -5.85203 1.83686
-15.5893 -5.61398 0.528799
-17.3969 -3.93931 2.29975
